ncols         323
nrows         32
xllcorner     1065637.63299
yllcorner     246152.34264
cellsize      22.379654135142
NODATA_value  -9999
5.77331 5.702506 5.702506 5.70182 5.733384 6.019471 6.061745 6.342088 6.361595 6.458393 6.458393 6.533824 6.495392 6.469222 6.304052 6.032083 5.819949 5.785346 5.785346 6.178197 6.296184 6.331139 6.419393 6.510122 6.47933 6.620096 6.620096 6.867627 7.005156 6.623416 6.720212 6.945725 7.159333 7.159333 7.237178 7.412964 7.711512 7.849143 7.922625 7.969969 7.892449 7.892449 7.821704 7.811249 7.731336 7.744667 7.790322 7.774428 7.615582 7.615582 7.387775 7.203387 7.235094 9.472965 9.361309 9.35259 9.295182 9.295182 9.29636 9.276839 9.348628 9.484713 9.282406 9.354784 10.06548 10.06548 9.909248 10.00758 10.16271 10.30668 10.44261 10.50616 11.05472 11.05472 12.07977 12.07971 12.26617 12.34989 12.46358 12.82989 12.98985 12.98985 13.04734 13.1073 12.90477 12.66153 12.22784 12.19849 12.26867 12.26867 12.7776 13.14536 13.14189 13.12579 13.1687 13.18827 13.2471 13.2471 14.37522 11.7094 11.7231 11.97996 10.28088 10.06616 9.617452 9.617452 9.628046 9.624839 9.373555 9.217567 8.995095 8.768597 8.326762 8.326762 6.408922 7.299196 9.255835 9.303082 10.08264 11.14032 11.14032 12.21359 13.21418 13.49619 13.65087 14.95209 15.92508 17.25951 17.25951 17.89272 18.79413 21.19864 22.61964 21.99463 22.54165 23.23191 23.23191 23.85729 24.49864 25.12962 25.5106 25.69469 25.88293 26.12508 26.12508 26.25697 26.24381 26.20086 26.4071 26.63631 26.61938 26.5026 26.5026 26.47618 26.53621 26.53444 26.704 26.6941 26.67507 26.55017 26.55017 26.46181 26.33386 26.24035 26.16976 25.98504 24.54251 23.59596 23.59596 23.06379 23.34321 24.14065 22.70557 22.51743 22.32031 22.41029 22.41029 22.44632 22.32341 21.9856 20.97374 20.7278 19.40007 19.34955 19.34955 19.46131 19.45537 19.47765 19.50162 19.50461 19.20819 19.25804 19.25804 19.04883 19.04389 18.67353 18.39379 18.2716 18.3208 18.32281 18.32281 17.32933 17.31363 17.38005 17.5708 17.85159 18.1797 18.1797 19.06169 20.54302 20.59181 20.61057 19.98938 19.48363 19.7415 19.7415 19.69458 18.95506 17.93022 17.53563 17.80429 18.39516 18.39936 18.39936 18.57466 18.69298 18.90673 19.4185 19.79588 19.84786 19.89021 19.89021 20.0592 20.20592 20.28587 20.38214 20.51788 20.51768 20.68842 20.68842 20.93963 20.92566 20.9104 21.29629 21.61541 21.78827 22.23032 22.23032 22.67474 22.76916 23.17967 23.38679 23.96447 24.61038 24.936 24.936 25.18461 25.5765 25.62477 28.18233 29.47847 30.54893 30.88091 30.88091 32.44188 32.43462 32.57515 33.20248 33.62376 33.88408 34.50487 34.50487 34.99552 35.54122 35.99545 36.48307 37.05169 37.34277 38.37889 38.37889 38.73096 38.7428 38.62151 38.53813 38.44265 38.38774 38.45122 38.45122 38.42353 38.4908 38.59539 38.89185 39.01287 39.64354 39.64354 40.13082 40.09848 40.02177 39.93823 39.9239 40.01992 40.18633 40.18633 40.56571 40.56064 40.7054 41.21421 41.26966 41.42456 41.85129 41.85129 42.27022 42.53551 42.56105 42.70343 43.01042 43.57135 44.06458 44.06458 44.44112 45.05317 45.67701 46.65986
5.681973 5.638817 5.638817 5.894689 5.999331 6.382807 6.292899 6.356983 6.501614 6.458307 6.458307 6.5047 6.331814 6.293022 6.264092 5.857702 5.792388 5.997198 5.997198 6.254846 6.397221 6.441583 6.463308 6.428255 6.574771 6.642247 6.642247 6.845265 6.741786 6.623416 6.720212 6.945725 7.159333 7.159333 7.237178 7.412964 7.711512 7.849143 7.922625 7.969969 7.892449 7.892449 7.821704 7.811249 7.731336 7.744667 7.790322 7.774428 7.615582 7.615582 7.387775 7.203387 7.235094 9.472965 9.361309 9.35259 9.295182 9.295182 9.29636 9.276839 9.348628 9.484713 9.282406 9.354784 10.06548 10.06548 9.909248 10.00758 10.16271 10.30668 10.44261 10.50616 11.05472 11.05472 12.07977 12.07971 12.26617 12.34989 12.46358 12.82989 12.98985 12.98985 13.04734 13.1073 12.90477 12.66153 12.22784 12.19849 12.26867 12.26867 12.7776 13.14536 13.14189 13.12579 13.1687 13.18827 13.2471 13.2471 14.37522 11.7094 11.7231 11.97996 10.28088 10.06616 9.617452 9.617452 9.628046 9.624839 9.373555 9.217567 8.995095 8.768597 8.326762 8.326762 6.408922 7.299196 9.255835 9.303082 10.08264 11.14032 11.14032 12.21359 13.21418 13.49619 13.65087 14.95209 15.92508 17.25951 17.25951 17.89272 18.79413 21.19864 22.61964 21.99463 22.54165 23.23191 23.23191 23.85729 24.49864 25.12962 25.5106 25.69469 25.88293 26.12508 26.12508 26.25697 26.24381 26.20086 26.4071 26.63631 26.61938 26.5026 26.5026 26.47618 26.53621 26.53444 26.704 26.6941 26.67507 26.55017 26.55017 26.46181 26.33386 26.24035 26.16976 25.98504 24.54251 23.59596 23.59596 23.06379 23.34321 24.14065 22.70557 22.51743 22.32031 22.41029 20.70568 19.95573 19.20854 19.17756 19.25104 19.44755 19.33967 19.35557 19.35557 19.34355 19.41969 19.43273 19.46621 19.51308 19.06813 18.70567 18.70567 18.42924 18.48455 18.11521 17.90792 18.12645 18.16569 17.24267 17.24267 16.86471 16.80647 17.02862 17.21278 17.39878 17.63361 17.63361 17.91663 18.49834 18.66974 18.83549 19.02573 19.13087 19.13348 19.13348 18.71193 18.33176 17.89945 18.06914 18.02566 18.20895 19.20831 19.20831 19.70641 20.09207 20.10673 19.88234 19.97669 20.15201 20.36382 20.36382 20.44139 20.3432 20.29618 20.75587 21.01283 21.05785 21.20181 21.20181 21.21349 21.21033 21.20576 21.55819 22.01904 22.30837 22.60312 22.60312 23.07077 23.49039 23.6628 23.84856 24.2957 24.68604 25.1503 25.1503 25.38505 25.64317 26.77316 28.48889 29.75866 30.53745 31.61424 31.61424 32.99498 33.46243 33.81222 33.91558 33.83154 34.1783 34.74124 34.74124 35.01056 35.42168 36.20667 36.81786 37.29943 37.46722 37.7403 37.7403 38.71292 38.70816 38.6296 38.66435 38.77578 38.6273 38.59103 38.59103 38.53666 38.28602 38.38622 38.57498 38.63884 38.73341 38.73341 39.08901 39.28813 39.40261 39.39685 39.49739 39.61952 39.81081 39.81081 39.84476 40.14065 40.26503 40.89415 41.01381 40.99337 41.52597 41.52597 41.64011 41.89825 42.0295 42.34458 42.74474 43.1835 43.7209 43.7209 44.3331 44.92402 45.52243 46.72412
6.154408 6.097709 6.097709 6.348226 6.267437 6.309387 6.326485 6.511966 6.303413 6.272738 6.272738 6.205884 6.111542 6.22212 5.877955 5.739587 5.766051 6.042673 6.042673 6.154397 6.313676 6.414221 6.526772 6.497922 6.534229 6.534229 6.591979 6.614694 6.578 6.535286 6.67404 7.024221 7.242484 7.242484 7.313578 7.287924 7.232746 7.653894 7.967847 8.022207 7.922865 7.922865 7.877196 7.81364 7.754369 7.774245 7.762137 7.756416 7.67043 7.67043 7.27142 7.164203 7.321424 9.534786 9.452404 9.43834 9.398039 9.398039 9.349213 9.34321 9.421453 9.422063 9.262835 9.733518 10.01444 10.01444 10.04165 10.17083 10.28753 10.39427 10.50442 10.5238 11.70581 11.70581 12.37065 12.3287 12.28254 12.27409 12.26894 12.46997 12.99781 12.99781 13.09392 12.89807 12.56585 12.0815 12.05598 12.10593 12.36152 12.36152 12.88363 13.3155 13.24153 13.20521 13.21963 13.2422 13.26913 13.26913 14.18472 11.58639 11.75761 11.42847 9.727663 9.370477 9.193693 9.193693 9.124042 9.123483 9.084429 9.101009 9.008586 9.031631 9.031631 8.429878 6.851824 6.695856 9.162377 9.348826 9.46649 10.43574 10.43574 11.43352 12.38699 13.16376 13.37648 13.80536 14.87368 15.86566 15.86566 16.7172 17.67804 18.76382 19.83998 20.95337 21.90199 22.83949 22.83949 23.78018 24.53602 25.04192 25.15681 25.79768 25.96874 25.98596 25.98596 26.30042 25.98621 25.79238 26.0127 26.3889 26.30394 26.40368 26.40368 26.21272 26.23993 26.00487 26.31772 26.42882 26.42724 26.36108 26.36108 26.40428 26.17525 26.03844 25.769 25.57447 23.89495 22.2741 22.2741 21.57045 21.36889 21.44848 22.36716 22.25877 21.53629 20.70568 20.70568 19.95573 19.20854 19.17756 19.25104 19.44755 19.33967 19.35557 19.35557 19.34355 19.41969 19.43273 19.46621 19.51308 19.06813 18.70567 18.70567 18.42924 18.48455 18.11521 17.90792 18.12645 18.16569 18.16569 17.24267 16.86471 16.80647 17.02862 17.21278 17.39878 17.63361 17.63361 17.91663 18.49834 18.66974 18.83549 19.02573 19.13087 19.13348 19.13348 18.71193 18.33176 17.89945 18.06914 18.02566 18.20895 19.20831 19.20831 19.70641 20.09207 20.10673 19.88234 19.97669 20.15201 20.36382 20.36382 20.44139 20.3432 20.29618 20.75587 21.01283 21.05785 21.20181 21.20181 21.21349 21.21033 21.20576 21.55819 22.01904 22.30837 22.60312 22.60312 23.07077 23.49039 23.6628 23.84856 24.2957 24.68604 25.1503 25.1503 25.38505 25.64317 26.77316 28.48889 29.75866 30.53745 31.61424 31.61424 32.99498 33.46243 33.81222 33.91558 33.83154 34.1783 34.74124 34.74124 35.01056 35.42168 36.20667 36.81786 37.29943 37.46722 37.7403 37.7403 38.71292 38.70816 38.6296 38.66435 38.77578 38.6273 38.6273 38.59103 38.53666 38.28602 38.38622 38.57498 38.63884 38.73341 38.73341 39.08901 39.28813 39.40261 39.39685 39.49739 39.61952 39.81081 39.81081 39.84476 40.14065 40.26503 40.89415 41.01381 40.99337 41.52597 41.52597 41.64011 41.89825 42.0295 42.34458 42.74474 43.1835 43.7209 43.88547 44.17071 44.7243 45.00445 46.42754
6.154408 6.097709 6.097709 6.348226 6.267437 6.309387 6.326485 6.511966 6.303413 6.272738 6.272738 6.205884 6.111542 6.22212 5.877955 5.739587 5.766051 6.042673 6.042673 6.154397 6.313676 6.414221 6.526772 6.497922 6.534229 6.534229 6.591979 6.614694 6.578 6.535286 6.67404 7.024221 7.242484 7.242484 7.401975 7.297508 7.291135 7.34807 7.65938 7.860274 7.843834 7.843834 7.881097 7.789444 7.691696 7.666164 7.636385 7.4927 7.347622 7.347622 7.133637 7.144094 7.975316 9.384336 9.42603 9.519817 9.523142 9.523142 9.47735 9.469389 9.489933 9.281429 9.20272 10.15432 9.952499 9.952499 9.930202 10.08451 10.19553 10.29745 10.46865 10.58893 11.50162 11.50162 12.23264 12.30617 12.26537 12.30856 12.41322 12.44352 12.48912 12.48912 12.6918 12.81164 11.87245 11.92315 12.21302 12.22774 12.23668 12.23668 12.54114 13.08321 13.14872 13.14706 13.07588 13.1099 13.28804 13.28804 14.33468 11.73186 11.95462 10.49977 9.271098 8.935832 8.834167 8.834167 8.79104 8.754784 8.785011 8.727496 8.698263 8.810641 8.810641 8.49594 7.016937 6.525503 8.887715 9.175806 10.07192 10.24897 10.24897 10.83239 11.98983 12.89441 13.18592 13.16763 13.99894 15.14003 15.14003 16.26097 17.38152 18.49579 19.8508 21.06875 22.13634 23.02187 23.02187 23.55467 23.93204 24.57977 24.70234 25.05193 25.35389 25.49668 25.49668 25.93691 25.97669 25.62297 25.54349 25.288 25.41906 25.79698 25.79698 25.62031 25.37867 25.32332 25.60851 25.61411 25.64933 26.14261 26.14261 26.15972 25.87661 25.63863 24.91303 24.4481 23.20149 20.92127 20.92127 20.27794 20.12008 20.01637 16.76375 15.91077 15.73007 15.82765 15.82765 16.18523 18.96234 19.08152 18.98919 19.06191 19.23909 19.24697 19.24697 19.15755 19.33004 19.32468 19.28895 19.37736 19.29837 18.67953 18.67953 17.88774 17.93757 17.05553 16.33173 16.37349 16.34998 16.34998 16.34956 16.09067 16.34978 16.67807 17.11646 16.99435 17.29381 17.29381 17.54757 17.82323 18.16264 18.47647 18.577 18.43681 17.83349 17.83349 17.85546 17.72595 17.56675 17.64402 19.13649 20.06602 20.26984 20.26984 20.43155 20.52892 20.39201 20.26587 20.30223 20.4002 20.61555 20.61555 20.61442 20.64323 20.48 20.55781 21.15691 21.20995 21.26682 21.26682 21.31161 21.14374 21.44816 21.71869 22.20034 22.44876 22.75863 22.75863 23.30971 23.8128 24.24301 24.25462 24.55613 24.7886 25.20232 25.20232 25.7856 26.55919 27.60737 28.70686 30.5073 32.24868 33.16261 33.16261 33.89854 34.05779 33.76203 33.93565 34.02905 34.26365 34.6005 34.6005 35.31155 36.01333 36.86334 37.06431 37.23094 37.49677 37.56572 37.56572 38.17423 38.67537 38.65048 38.70232 38.67992 38.74783 38.74783 38.2018 37.9704 38.05996 38.28745 38.44776 38.67648 38.76244 38.76244 38.85175 39.03699 39.23461 39.18554 39.30385 39.31705 39.48777 39.48777 39.44699 39.72976 39.82304 40.06961 40.50519 40.56091 40.94468 40.94468 41.10845 41.452 41.83616 42.10411 42.5711 43.29884 43.88547 43.88547 44.17071 44.7243 45.00445 46.42754
6.267099 6.269198 6.269198 6.296232 6.299557 6.442365 6.521835 6.19918 6.065427 6.125664 6.125664 6.061604 5.994888 5.799339 5.62818 5.656665 5.858114 6.157327 6.157327 6.275733 6.342427 6.404448 6.734122 6.710824 6.670861 6.670861 6.479098 6.459853 6.473876 6.433039 6.757065 7.140954 7.306182 7.306182 7.401975 7.297508 7.291135 7.34807 7.65938 7.860274 7.843834 7.843834 7.881097 7.789444 7.691696 7.666164 7.636385 7.4927 7.347622 7.347622 7.133637 7.144094 7.975316 9.384336 9.42603 9.519817 9.523142 9.523142 9.47735 9.469389 9.489933 9.281429 9.20272 10.15432 9.952499 9.952499 9.930202 10.08451 10.19553 10.29745 10.46865 10.58893 11.50162 11.50162 12.23264 12.30617 12.26537 12.30856 12.41322 12.44352 12.48912 12.48912 12.6918 12.81164 11.87245 11.92315 12.21302 12.22774 12.23668 12.23668 12.54114 13.08321 13.14872 13.14706 13.07588 13.1099 13.28804 13.28804 14.33468 11.73186 11.95462 10.49977 9.271098 8.935832 8.834167 8.834167 8.79104 8.754784 8.785011 8.727496 8.698263 8.810641 8.810641 8.49594 7.016937 6.525503 8.887715 9.175806 10.07192 10.24897 10.24897 10.83239 11.98983 12.89441 13.18592 13.16763 13.99894 15.14003 15.14003 16.26097 17.38152 18.49579 19.8508 21.06875 22.13634 23.02187 23.02187 23.55467 23.93204 24.57977 24.70234 25.05193 25.35389 25.49668 25.49668 25.93691 25.97669 25.62297 25.54349 25.288 25.41906 25.79698 25.79698 25.62031 25.37867 25.32332 25.60851 25.61411 25.64933 26.14261 26.14261 26.15972 25.87661 25.63863 24.91303 24.4481 23.20149 20.92127 20.92127 20.27794 20.12008 20.01637 16.76375 15.91077 15.73007 15.82765 15.82765 16.18523 18.96234 19.08152 17.5672 17.91211 18.45947 19.15627 19.15627 19.31634 19.26668 18.8645 18.35816 18.16676 18.88879 18.64821 18.64821 17.38559 17.29327 16.49464 16.14983 16.00843 16.0376 16.0376 15.77153 15.68144 15.81094 16.06941 16.30312 16.5661 16.96533 16.96533 17.42343 17.8003 17.14881 17.22247 17.41706 17.50112 17.50603 17.50603 16.4501 16.53027 16.68504 17.8926 19.66362 20.31426 20.73032 20.73032 20.94165 20.96084 20.86262 20.67798 20.7176 20.67973 20.67351 20.67351 20.88212 20.72203 20.82042 20.62791 20.81244 20.91101 21.05789 21.05789 21.17174 21.43797 21.86758 22.08981 22.54449 22.91991 23.39608 23.39608 23.80183 24.23612 24.66272 24.7918 24.97832 25.12387 25.52669 25.52669 26.28496 26.90736 27.52401 28.81695 30.42551 31.87391 33.5822 33.5822 33.96717 34.02378 33.75721 33.87892 34.10056 34.39077 34.67771 34.67771 35.31002 36.39962 37.03693 37.35155 37.67873 37.64005 37.60192 37.60192 37.74585 38.49552 38.67091 38.86763 38.74584 38.58923 38.58923 38.25949 37.94363 37.74333 38.29773 38.42916 38.63182 38.73996 38.73996 38.89522 39.15583 39.10823 39.12318 38.96032 38.85254 39.25291 39.25291 39.33275 39.46437 39.40595 39.58875 40.25878 40.50312 40.60374 40.60374 41.01653 41.33417 41.86084 42.12509 42.56348 43.14017 43.69091 43.69091 43.94902 44.17555 44.49131 45.12906
6.342803 6.352314 6.352314 6.413115 6.32328 6.227599 6.103366 6.008234 6.016039 5.9601 5.9601 5.947437 5.78002 5.549833 5.626053 5.760275 6.036105 6.212115 6.212115 6.240378 6.346432 6.52062 6.773052 6.822812 6.744189 6.744189 6.680406 6.523695 6.434474 6.486627 6.878273 7.188075 7.404551 7.404551 7.363554 7.315154 7.366445 7.542579 7.737502 7.839978 7.837518 7.837518 7.743187 7.620307 7.546414 7.461936 7.382338 7.298697 7.195266 7.195266 7.034107 7.037159 8.80372 9.252837 9.307031 9.311337 9.319818 9.319818 9.306937 9.28666 9.198378 9.0896 9.175778 10.07407 10.25009 10.25009 10.34667 10.41027 10.42172 10.52619 10.56987 10.89744 11.60733 11.60733 12.17811 12.29263 12.37006 12.46354 12.49481 12.46522 12.31929 12.31929 12.03212 11.79204 11.76175 12.14064 12.40323 12.44926 12.25962 12.25962 12.28293 12.7022 12.79849 12.87902 12.86942 12.89968 12.96906 12.96906 14.43681 11.87999 12.18563 9.238502 8.804543 8.560423 8.450992 8.450992 8.374788 8.38859 8.374597 8.375136 8.538026 8.663983 8.663983 8.492257 6.897091 6.459741 8.438907 8.933394 9.829995 10.0577 10.0577 10.23312 11.58 12.39915 12.94985 12.95982 13.66221 14.46967 14.46967 14.78477 15.2943 16.91788 19.06794 21.10851 21.71867 22.77591 22.77591 23.15827 23.64112 24.12589 24.10851 24.32124 25.10758 25.10557 25.10557 24.88603 24.98798 25.07249 25.03569 24.86622 24.74916 25.12643 25.12643 25.20317 24.73502 24.67076 24.76537 24.66605 24.61414 24.8104 24.8104 24.07614 23.1994 21.9489 20.58041 20.32684 19.84414 18.9002 18.9002 17.72884 18.63679 18.26138 16.43627 15.21758 15.24198 15.52436 15.52436 16.07672 16.92525 17.3869 17.5672 17.91211 18.45947 19.15627 19.15627 19.31634 19.26668 18.8645 18.35816 18.16676 18.88879 18.64821 18.64821 17.38559 17.29327 16.49464 16.14983 16.00843 16.0376 16.0376 15.77153 15.68144 15.81094 16.06941 16.30312 16.5661 16.96533 16.96533 17.42343 17.8003 17.14881 17.22247 17.41706 17.50112 17.50603 17.50603 16.4501 16.53027 16.68504 17.8926 19.66362 20.31426 20.73032 20.73032 20.94165 20.96084 20.86262 20.67798 20.7176 20.67973 20.67351 20.67351 20.88212 20.72203 20.82042 20.62791 20.81244 20.91101 21.05789 21.05789 21.17174 21.43797 21.86758 22.08981 22.54449 22.91991 23.39608 23.39608 23.80183 24.23612 24.66272 24.7918 24.97832 25.12387 25.52669 25.52669 26.28496 26.90736 27.52401 28.81695 30.42551 31.87391 33.5822 33.5822 33.96717 34.02378 33.75721 33.87892 34.10056 34.39077 34.67771 34.67771 35.31002 36.39962 37.03693 37.35155 37.67873 37.64005 37.60192 37.60192 37.74585 38.49552 38.67091 38.86763 38.74584 38.58923 38.58923 38.25949 37.94363 37.74333 38.29773 38.42916 38.63182 38.73996 38.73996 38.89522 39.15583 39.10823 39.12318 38.96032 38.85254 39.25291 39.25291 39.33275 39.46437 39.40595 39.58875 40.25878 40.50312 40.60374 40.60374 41.01653 41.33417 41.86084 42.12509 42.56348 43.14017 43.69091 43.69091 43.94902 44.17555 44.49131 43.7935
6.342803 6.352314 6.352314 6.413115 6.32328 6.227599 6.103366 6.008234 6.016039 5.9601 5.9601 5.947437 5.78002 5.549833 5.626053 5.760275 6.036105 6.036105 6.212115 6.240378 6.346432 6.52062 6.773052 6.822812 6.744189 6.744189 6.680406 6.523695 6.434474 6.486627 6.878273 7.188075 7.404551 7.404551 7.363554 7.315154 7.366445 7.542579 7.93103 7.89341 7.875803 7.875803 7.550293 7.499225 7.451165 7.476496 7.559183 7.509663 7.229137 7.229137 7.004439 6.984521 8.96644 9.016125 9.123722 9.196255 9.219386 9.219386 9.212542 9.188342 9.185447 9.085525 9.083498 9.78904 10.02225 10.02225 10.06717 10.09713 10.28655 10.34744 10.56795 10.79882 11.39725 11.39725 12.14472 12.26766 12.59779 12.55898 12.45482 12.48045 12.10012 12.10012 11.81948 11.79827 12.25778 12.40481 12.48528 12.51755 12.24405 12.24405 12.22704 12.53982 12.80014 12.92431 12.93011 12.96747 12.94296 12.94296 14.27824 12.16131 10.85907 8.663345 8.393912 8.235481 8.235481 8.149879 8.059424 8.122614 8.083416 8.105218 8.251734 8.600667 8.600667 8.737085 6.638581 6.467166 7.942371 8.972344 9.382927 9.724087 9.724087 10.47591 11.69212 12.21983 12.26735 12.60677 12.77368 13.67628 13.67628 13.05003 13.11846 16.03432 18.80882 19.00086 21.71437 22.624 22.624 22.99614 23.582 23.8378 23.71139 24.03946 24.50825 24.72348 24.72348 24.88387 24.82059 24.74229 24.66059 24.53119 24.50448 24.95667 24.95667 25.07851 24.67158 23.63728 23.07541 21.84297 21.08525 20.68738 20.68738 19.49044 18.02518 16.47388 15.26483 14.82448 16.66776 16.98512 16.98512 15.95848 17.0382 15.83561 15.33559 14.5743 14.69914 14.80924 14.80924 15.05754 15.44734 15.71349 16.03938 16.45877 17.37774 18.8187 18.8187 19.22326 19.27922 18.56174 16.81102 16.2153 17.21016 17.21016 17.89784 16.6702 16.72339 16.37682 16.04652 15.88995 15.83934 15.83934 15.53695 15.53451 15.63736 15.76964 15.9532 16.05146 16.02973 16.02973 16.36689 16.55185 16.82961 16.29619 15.81376 16.88331 18.47746 18.47746 17.90782 18.61184 19.04849 19.79183 20.22355 20.57337 21.0483 21.0483 21.31779 21.46261 21.40354 21.18003 21.25942 21.02575 20.94529 20.94529 20.82173 21.47996 21.48533 21.08154 21.22047 21.26882 21.42128 21.42128 21.81174 22.54761 23.14886 23.04523 23.23281 23.73111 24.25205 24.25205 24.69962 25.15628 25.62555 26.51969 26.47364 26.86828 27.19105 27.19105 27.72147 27.67129 27.95771 28.63992 30.24865 32.44923 33.42908 33.42908 33.49704 33.54313 33.8235 34.10642 34.37677 34.71646 35.07381 35.07381 35.39594 36.21509 37.06876 37.52613 37.8524 37.80673 37.80673 37.71765 37.89915 38.59486 39.14647 39.37014 39.48338 38.87957 38.87957 38.17823 38.0398 37.73331 38.30566 38.29599 38.57538 38.73907 38.73907 38.89201 38.96405 38.73395 38.80328 38.77271 38.81023 39.09116 39.09116 39.21672 39.34879 39.30613 39.59118 40.21815 40.42662 40.57035 40.57035 41.0146 41.42625 41.9891 42.1718 42.38066 42.75133 43.19403 43.19403 43.66934 43.60176 43.62221 43.7935
6.321566 5.894937 5.894937 5.761035 6.118488 6.015947 5.957908 5.919082 6.023176 5.825856 5.825856 5.565117 5.451299 5.478136 5.633295 5.828953 6.035443 6.035443 6.168353 6.147544 6.211738 6.430408 6.68005 6.646373 6.695779 6.695779 6.601031 6.521277 6.458822 6.638252 6.992323 7.271235 7.415322 7.415322 7.373771 7.483713 7.386475 7.641384 7.93103 7.89341 7.875803 7.875803 7.550293 7.499225 7.451165 7.476496 7.559183 7.509663 7.229137 7.229137 7.004439 6.984521 8.96644 9.016125 9.123722 9.196255 9.219386 9.219386 9.212542 9.188342 9.185447 9.085525 9.083498 9.78904 10.02225 10.02225 10.06717 10.09713 10.28655 10.34744 10.56795 10.79882 11.39725 11.39725 12.14472 12.26766 12.59779 12.55898 12.45482 12.48045 12.10012 12.10012 11.81948 11.79827 12.25778 12.40481 12.48528 12.51755 12.24405 12.24405 12.22704 12.53982 12.80014 12.92431 12.93011 12.96747 12.94296 12.94296 14.27824 12.16131 10.85907 8.663345 8.393912 8.235481 8.235481 8.149879 8.059424 8.122614 8.083416 8.105218 8.251734 8.600667 8.600667 8.737085 6.638581 6.467166 7.942371 8.972344 9.382927 9.724087 9.724087 10.47591 11.69212 12.21983 12.26735 12.60677 12.77368 13.67628 13.67628 13.05003 13.11846 16.03432 18.80882 19.00086 21.71437 22.624 22.624 22.99614 23.582 23.8378 23.71139 24.03946 24.50825 24.72348 24.72348 24.88387 24.82059 24.74229 24.66059 24.53119 24.50448 24.95667 24.95667 25.07851 24.67158 23.63728 23.07541 21.84297 21.08525 20.68738 20.68738 19.49044 18.02518 16.47388 15.26483 14.82448 16.66776 16.98512 16.98512 15.95848 17.0382 15.83561 15.33559 14.5743 14.69914 14.80924 14.80924 15.05754 15.44734 15.71349 16.03938 16.45877 17.37774 18.8187 18.8187 17.14322 16.83449 15.64082 15.31852 15.27077 15.51912 15.51912 15.78059 16.07194 16.32134 16.12457 15.83289 15.70822 15.74529 15.74529 15.4587 15.30009 15.30019 15.39715 15.38056 15.50079 15.16691 15.16691 14.77845 15.0556 15.16619 15.59765 17.68353 19.35501 20.14599 20.14599 20.56234 20.53641 20.39563 20.44235 20.70921 21.26288 21.39506 21.39506 21.63771 21.80776 21.74121 21.50573 21.39065 21.30112 21.0641 21.0641 21.00682 21.58796 21.59924 21.50174 21.51113 21.74499 22.06663 22.06663 22.86184 23.2746 23.15228 23.67288 24.32027 24.84139 25.52581 25.52581 26.4239 27.14421 29.31665 29.47991 29.7331 29.58948 29.83597 29.83597 29.62269 30.24506 30.02674 30.601 32.03609 33.40899 33.35109 33.35109 33.32695 33.63794 34.07549 34.26244 34.67775 35.25872 35.48298 35.48298 35.54599 36.06329 36.88441 37.43917 37.74698 37.69944 37.69944 37.66561 37.9835 38.75083 39.19709 39.47946 39.51206 39.08841 39.08841 38.51814 38.23742 37.936 38.17019 38.20863 38.39727 38.51971 38.51971 38.55701 38.52233 38.68342 38.78631 39.06879 39.2749 39.04555 39.04555 39.03292 39.24312 39.45965 39.48053 39.76981 40.15028 40.37112 40.37112 40.69867 41.3095 41.54369 41.78675 42.05414 42.33625 42.81154 42.81154 43.25908 43.05082 42.94009 43.30939
5.939315 5.837938 5.837938 5.868006 5.843114 5.905122 5.994008 5.751077 5.676066 5.549689 5.549689 5.507796 5.445253 5.701948 5.693493 5.775883 5.779357 5.779357 5.810296 5.783481 5.930251 6.107049 6.319625 6.616116 6.674155 6.674155 6.602215 6.562912 6.530894 6.724578 7.015446 7.209916 7.263899 7.263899 7.334178 7.459567 7.530363 7.631776 7.763991 7.828432 7.78475 7.78475 7.57361 7.467608 7.476019 7.5667 7.616472 7.77032 7.103372 7.103372 6.916905 7.048579 9.112114 9.132779 9.227709 9.263521 9.226491 9.226491 9.198792 9.172763 9.119024 9.095524 9.169962 9.476284 9.641731 9.641731 10.05369 9.895084 9.887123 10.04815 10.33869 10.84182 11.84451 11.84451 12.22062 12.18485 12.40812 12.50411 12.35218 12.10871 11.95449 11.95449 11.97294 12.00156 12.33587 12.45591 12.50981 12.50393 12.1562 12.1562 12.126 12.6251 12.67038 12.69121 12.64938 12.67736 12.75581 12.75581 14.11668 12.29828 9.813928 8.344808 8.171779 8.123534 8.123534 8.178819 8.291319 8.191274 8.268953 8.233242 8.090344 8.483635 8.483635 8.843639 6.93163 6.419634 7.233948 8.851123 9.098054 9.446624 9.446624 10.32373 11.27522 12.07063 12.00255 12.28605 12.30909 13.02855 13.02855 13.83553 14.54294 14.8186 16.48092 18.93756 22.12169 22.62431 22.62431 23.05874 23.45197 23.75236 23.49733 23.68249 24.6609 24.68791 24.68791 24.81774 24.85858 23.86394 23.69973 23.52962 22.66454 20.87362 20.87362 19.85611 18.35959 18.22135 18.64205 18.158 15.2283 14.63579 14.63579 14.75401 14.6063 14.4707 14.23806 14.24514 15.31939 15.59856 15.59856 15.69035 15.50536 15.2119 14.85751 13.96272 14.02184 14.22411 14.22411 14.51221 14.85831 15.20263 15.48283 15.64423 15.85141 17.15994 17.15994 17.14322 16.83449 15.64082 15.31852 15.27077 15.51912 15.51912 15.78059 16.07194 16.32134 16.12457 15.83289 15.70822 15.74529 15.74529 15.4587 15.30009 15.30019 15.39715 15.38056 15.50079 15.16691 15.16691 14.77845 15.0556 15.16619 15.59765 17.68353 19.35501 20.14599 20.14599 20.56234 20.53641 20.39563 20.44235 20.70921 21.26288 21.39506 21.39506 21.63771 21.80776 21.74121 21.50573 21.39065 21.30112 21.0641 21.0641 21.00682 21.58796 21.59924 21.50174 21.51113 21.74499 22.06663 22.06663 22.86184 23.2746 23.15228 23.67288 24.32027 24.84139 25.52581 25.52581 26.4239 27.14421 29.31665 29.47991 29.7331 29.58948 29.83597 29.83597 29.62269 30.24506 30.02674 30.601 32.03609 33.40899 33.35109 33.35109 33.32695 33.63794 34.07549 34.26244 34.67775 35.25872 35.48298 35.48298 35.54599 36.06329 36.88441 37.43917 37.74698 37.69944 37.69944 37.66561 37.9835 38.75083 39.19709 39.47946 39.51206 39.08841 39.08841 38.51814 38.23742 37.936 38.17019 38.20863 38.39727 38.51971 38.51971 38.55701 38.52233 38.68342 38.78631 39.06879 39.2749 39.04555 39.04555 39.03292 39.24312 39.45965 39.48053 39.76981 40.15028 40.37112 40.37112 40.69867 41.3095 41.54369 41.78675 42.05414 42.33625 42.81154 42.81154 43.25908 43.05082 42.94009 43.30939
5.939315 5.837938 5.837938 5.868006 5.843114 5.905122 5.994008 5.751077 5.676066 5.549689 5.549689 5.507796 5.445253 5.701948 5.693493 5.775883 5.779357 5.779357 5.810296 5.783481 5.930251 6.107049 6.319625 6.616116 6.674155 6.674155 6.602215 6.562912 6.530894 6.724578 7.015446 7.209916 7.263899 7.263899 7.334178 7.459567 7.530363 7.631776 7.763991 7.828432 7.78475 7.78475 7.569172 7.546514 7.518998 7.577443 7.536171 7.319617 6.924833 6.924833 6.900313 7.335759 9.291968 9.283816 9.363518 9.297322 9.258067 9.258067 9.225282 9.182483 9.032413 9.051423 9.193137 9.337562 9.686453 9.686453 9.766696 9.919107 9.842857 9.947663 10.50726 10.61425 11.96043 11.96043 12.41003 12.50913 12.56808 12.3971 12.19685 12.05055 12.09676 12.09676 11.76453 10.92966 10.85674 12.48798 12.51539 12.55976 12.10593 12.10593 12.0072 12.09714 12.21135 12.12742 12.20078 12.35709 12.52349 12.52349 13.80585 12.26728 9.280349 8.246889 8.297126 8.354527 8.354527 8.35824 8.341883 8.31743 8.296407 8.283733 8.154047 8.361792 8.361792 8.682326 7.462656 6.361787 6.646713 8.608353 8.969719 9.280687 9.280687 10.08708 10.77232 11.45133 11.99424 12.17611 12.04786 13.04752 13.04752 13.44244 13.86101 14.48313 14.9221 18.02732 22.41453 22.72017 22.72017 22.98016 23.39854 23.51197 23.30744 23.24657 23.27556 23.52308 23.52308 23.36542 21.781 19.56183 18.28756 18.3192 18.21178 18.04249 18.04249 17.35887 16.54061 16.54769 16.41123 14.74379 14.41983 14.50049 14.50049 14.85621 14.80823 14.53683 14.25695 14.26071 14.43646 14.57618 14.57618 14.44744 14.38834 14.552 14.26416 13.61272 13.42743 13.91579 13.91579 14.17894 14.23184 13.90398 13.75416 13.81269 13.99241 14.16472 14.16472 14.36126 14.54054 14.75903 14.96128 15.20844 15.45962 15.45962 15.67571 15.92025 16.08454 16.0062 15.68749 15.52135 15.43216 15.43216 15.24039 15.00184 15.38131 15.13474 15.04347 14.93248 14.58813 14.58813 14.61468 15.50587 16.89666 18.77097 20.12678 20.89946 21.08302 21.08302 21.19896 21.08614 21.00491 21.16697 21.21243 20.93733 20.8319 20.8319 21.87087 21.8392 21.8833 21.73668 21.62866 21.58944 21.51357 21.51357 21.56163 21.71482 21.72582 21.82144 22.34415 22.6149 22.90653 22.90653 23.31856 23.80286 24.04866 25.35165 25.7478 26.50075 27.43799 27.43799 28.67383 29.86819 31.45889 32.15031 32.21468 32.26034 32.23601 32.23601 32.09937 32.09013 32.47968 33.16825 33.39476 33.29254 33.28916 33.28916 33.15963 33.29403 34.2228 34.66318 35.10206 35.47094 35.47094 35.59673 35.67147 35.71189 36.82194 37.41059 37.44543 37.64297 37.64297 38.00497 38.55386 38.95041 39.31985 39.25725 39.24875 39.06499 39.06499 38.81291 38.43513 38.18674 38.29447 38.11847 38.32648 38.36584 38.36584 38.37124 38.25048 38.33916 38.39182 38.31581 38.34504 38.57488 38.57488 38.71662 38.81377 39.08708 39.42503 39.66244 40.0691 40.22776 40.22776 40.53692 41.25795 41.55478 41.79622 41.97046 42.17769 42.49298 42.49298 42.86718 42.71914 42.78036 43.03324
5.812196 5.785324 5.785324 5.844256 5.855379 5.737001 5.646718 5.460359 5.55959 5.55959 5.536026 5.66664 5.78743 6.003532 6.02525 5.99753 5.906866 5.906866 5.721286 5.765622 5.968822 6.267753 6.326029 6.621946 6.628912 6.628912 6.551167 6.423496 6.556978 6.80614 7.13031 7.222563 7.488388 7.488388 7.515075 7.455607 7.541781 7.637923 7.730254 7.749729 7.701432 7.701432 7.569172 7.546514 7.518998 7.577443 7.536171 7.319617 6.924833 6.924833 6.900313 7.335759 9.291968 9.283816 9.363518 9.297322 9.258067 9.258067 9.225282 9.182483 9.032413 9.051423 9.193137 9.337562 9.686453 9.686453 9.766696 9.919107 9.842857 9.947663 10.50726 10.61425 11.96043 11.96043 12.41003 12.50913 12.56808 12.3971 12.19685 12.05055 12.09676 12.09676 11.76453 10.92966 10.85674 12.48798 12.51539 12.55976 12.10593 12.10593 12.0072 12.09714 12.21135 12.12742 12.20078 12.35709 12.35709 12.52349 13.80585 12.26728 9.280349 8.246889 8.297126 8.354527 8.354527 8.35824 8.341883 8.31743 8.296407 8.283733 8.154047 8.361792 8.361792 8.682326 7.462656 6.361787 6.646713 8.608353 8.969719 9.280687 9.280687 10.08708 10.77232 11.45133 11.99424 12.17611 12.04786 13.04752 13.04752 13.44244 13.86101 14.48313 14.9221 18.02732 22.41453 22.72017 22.72017 22.98016 23.39854 23.51197 23.30744 23.24657 23.27556 23.52308 23.52308 23.36542 21.781 19.56183 18.28756 18.3192 18.21178 18.04249 18.04249 17.35887 16.54061 16.54769 16.41123 14.74379 14.41983 14.50049 14.50049 14.85621 14.80823 14.53683 14.25695 14.26071 14.43646 14.57618 14.57618 14.44744 14.38834 14.552 14.26416 13.61272 13.42743 13.91579 13.91579 14.17894 14.23184 13.90398 13.75416 13.81269 13.99241 13.99241 14.16472 14.36126 14.54054 14.75903 14.96128 15.89573 15.92795 15.92795 15.99953 15.98818 15.9997 15.94221 15.58742 15.55698 15.45172 15.45172 15.64004 15.60493 15.65287 15.15559 15.32243 15.84353 15.63457 15.63457 16.97191 18.86899 20.32185 20.7682 21.15352 21.28049 21.34533 21.34533 21.51734 21.54666 21.55033 21.59214 21.45787 21.60845 21.88044 21.88044 22.11544 22.22596 22.21332 22.15889 22.0746 22.19985 22.30867 22.30867 22.39683 22.10041 21.79563 21.82245 23.34866 23.92757 24.4438 24.4438 24.8996 25.79697 26.33698 26.82785 27.42429 28.76089 29.76147 29.76147 30.83797 31.90067 32.93119 33.28708 33.21803 33.08988 32.80399 32.80399 32.50461 32.58412 33.21236 33.51509 33.1776 33.6483 33.54453 33.54453 33.66009 33.35247 33.64486 34.86818 35.13197 35.47525 35.47525 35.63902 35.65535 36.40115 37.11332 37.65395 37.73701 38.03827 38.03827 38.42197 38.86679 39.09177 39.25387 39.38208 39.27351 39.22806 39.22806 39.12667 38.73591 38.42738 38.27183 38.19667 38.31509 38.35032 38.35032 38.19667 38.37029 38.3923 38.41734 38.36385 38.17455 38.31575 38.31575 38.43932 38.65215 38.95568 39.23724 39.51151 40.07021 40.14371 40.14371 40.36671 40.99316 41.49995 41.7184 41.83928 42.06452 42.36016 42.36016 42.52047 42.49372 42.63793 42.87856
5.579422 5.5574 5.5574 5.438234 5.473884 5.447263 5.417562 5.353524 5.594512 5.594512 5.821102 5.941577 5.959168 6.179175 6.1915 6.187991 6.054856 6.054856 6.036754 5.930394 5.999552 6.161983 6.480383 6.664036 6.62782 6.62782 6.548091 6.532516 6.640776 7.006368 7.241994 7.233671 7.427663 7.427663 7.450864 7.430189 7.435632 7.64398 7.698045 7.71009 7.505126 7.505126 7.362673 7.409087 7.420496 7.514624 7.461076 7.164056 6.810535 6.810535 6.84025 7.821053 9.117228 9.114381 9.247937 9.24724 9.21949 9.21949 9.193365 9.186265 8.979918 8.957335 9.140367 9.359846 9.518229 9.518229 9.794479 9.886292 9.776074 10.07741 10.59027 10.53282 12.28539 12.28539 12.42825 12.4614 12.48604 12.35512 12.16621 12.22788 12.44299 12.44299 11.35711 10.78029 10.69754 12.4593 12.49436 12.42091 12.07921 12.07921 11.94167 12.50523 12.66596 12.71349 12.74385 12.74378 12.74378 12.78516 14.17602 12.29833 9.236199 8.215778 8.32793 8.327446 8.327446 8.320276 8.312346 8.302896 8.289007 8.272644 8.233802 8.247534 8.247534 8.65187 7.463683 6.347044 6.64642 8.599431 8.726811 8.978609 8.978609 9.717164 10.59317 11.57738 12.18861 11.96647 11.69677 11.9439 11.9439 12.76676 13.24956 13.70766 13.04153 14.065 20.29323 22.66171 22.66171 23.32282 23.43581 23.15984 23.31842 23.10812 20.95685 21.1467 21.1467 20.71976 19.3461 16.65939 16.91015 17.66297 16.63969 14.25544 14.25544 13.47554 14.42052 14.49461 14.78084 14.53863 14.31172 14.27825 14.27825 14.58024 14.56144 14.41638 14.09677 13.84253 13.75714 13.73297 13.73297 13.72736 13.59199 13.48322 12.9973 12.86255 12.79375 12.95373 12.95373 13.07735 13.24283 13.41398 13.54062 13.69788 13.84094 13.84094 14.14634 14.46835 14.97815 15.36697 15.67374 15.89573 15.92795 15.92795 15.99953 15.98818 15.9997 15.94221 15.58742 15.55698 15.45172 15.45172 15.64004 15.60493 15.65287 15.15559 15.32243 15.84353 15.63457 15.63457 16.97191 18.86899 20.32185 20.7682 21.15352 21.28049 21.34533 21.34533 21.51734 21.54666 21.55033 21.59214 21.45787 21.60845 21.88044 21.88044 22.11544 22.22596 22.21332 22.15889 22.0746 22.19985 22.30867 22.30867 22.39683 22.10041 21.79563 21.82245 23.34866 23.92757 24.4438 24.4438 24.8996 25.79697 26.33698 26.82785 27.42429 28.76089 29.76147 29.76147 30.83797 31.90067 32.93119 33.28708 33.21803 33.08988 32.80399 32.80399 32.50461 32.58412 33.21236 33.51509 33.1776 33.6483 33.54453 33.54453 33.66009 33.35247 33.64486 34.86818 35.13197 35.47525 35.47525 35.63902 35.65535 36.40115 37.11332 37.65395 37.73701 38.03827 38.03827 38.42197 38.86679 39.09177 39.25387 39.38208 39.27351 39.22806 39.22806 39.12667 38.73591 38.42738 38.27183 38.19667 38.31509 38.35032 38.35032 38.19667 38.37029 38.3923 38.41734 38.36385 38.17455 38.31575 38.31575 38.43932 38.65215 38.95568 39.23724 39.51151 40.07021 40.14371 40.14371 40.36671 40.99316 41.49995 41.7184 41.83928 42.06452 42.36016 42.36016 42.52047 42.49372 42.63793 42.87856
5.579422 5.5574 5.5574 5.438234 5.473884 5.447263 5.417562 5.353524 5.594512 5.594512 5.821102 5.941577 5.959168 6.179175 6.1915 6.187991 6.054856 6.054856 6.036754 5.930394 5.999552 6.161983 6.480383 6.664036 6.62782 6.62782 6.548091 6.532516 6.640776 7.006368 7.241994 7.233671 7.427663 7.427663 7.450864 7.430189 7.435632 7.64398 7.698045 7.71009 7.505126 7.505126 7.362673 7.409087 7.420496 7.514624 7.461076 7.049182 6.770273 6.770273 6.719947 8.740355 9.017428 9.092603 9.18377 9.168883 9.145036 9.145036 9.119932 9.071726 8.846414 8.824503 9.135847 9.360998 9.490785 9.490785 9.792673 9.995419 10.00039 10.19279 10.61735 11.00186 12.3153 12.3153 12.46998 12.49527 12.45494 12.16712 12.12371 12.43178 12.37855 12.37855 12.3277 11.68225 11.53499 12.2859 12.3435 12.31867 12.1256 12.1256 11.96195 12.41475 12.79982 12.92095 12.89526 12.86594 12.86594 12.80201 13.97452 12.63986 9.535414 8.222055 8.307791 8.293601 8.293601 8.295815 8.295135 8.289462 8.281319 8.275414 8.261285 8.164361 8.164361 8.580547 7.433259 6.418803 6.392078 8.406315 8.509816 8.745232 8.745232 9.304436 10.07348 10.78833 11.5983 11.64032 11.43027 11.51739 11.51739 12.45507 12.45133 12.31145 12.63634 13.20978 16.72589 18.71947 18.71947 19.65737 19.50309 19.40144 21.2671 20.45611 18.83125 19.00835 19.00835 18.92618 18.74741 14.64107 14.41867 13.81909 13.16958 12.32187 12.32187 12.40382 12.39447 13.50528 13.69917 14.03824 13.83586 13.85639 13.85639 13.8201 13.87172 13.09732 13.19732 12.63836 12.53243 12.46124 12.46124 12.57618 12.63136 12.72003 12.75456 12.74642 12.7985 12.79688 12.79688 12.9189 13.41373 13.97251 14.41348 14.80485 14.93576 14.93576 15.12068 15.18581 15.40486 15.50272 15.67324 15.94551 16.05089 16.05089 16.20626 16.11491 15.96619 15.94646 16.0317 16.0018 16.18694 16.18694 16.41545 16.39767 16.44437 16.02017 15.83211 16.88978 17.55215 17.55215 19.50162 20.6799 21.20809 21.41758 21.60982 21.66692 21.86844 21.86844 21.96037 21.9943 22.00091 22.08808 22.32169 22.3879 22.65729 22.65729 22.64949 22.70625 22.71574 22.9292 23.21191 23.37238 23.50235 23.50235 23.67086 24.06093 24.68718 25.24376 25.38431 25.74476 26.32257 26.32257 27.41051 28.39214 29.31478 29.56015 29.13888 30.07202 31.79997 31.79997 32.55974 32.70903 32.89487 33.11901 33.22925 33.23059 32.87312 32.87312 32.78512 32.81967 33.1396 33.231 33.95754 33.49021 33.50281 33.50281 33.48654 33.52029 33.82853 34.5288 35.54636 36.03363 36.03363 36.4793 36.78307 36.88292 37.33547 37.76497 38.34237 38.49213 38.49213 38.82249 38.96783 39.15934 39.31867 39.22955 39.20608 38.66119 38.66119 38.68721 38.66188 38.55149 38.36316 38.28965 38.13921 38.27826 38.27826 38.17793 38.38995 38.36189 38.36621 38.20198 38.05283 38.22192 38.22192 38.41693 38.60187 39.06654 39.37354 39.64674 39.91877 40.1183 40.1183 40.34362 40.72254 41.70668 41.65686 41.95186 42.23161 42.44861 42.44861 42.77942 42.54333 42.62006 42.94148
5.279846 5.293507 5.293507 5.370202 5.454644 5.514753 5.625016 5.397123 5.631592 5.631592 5.987665 6.120813 6.184973 6.110964 5.983841 6.233973 6.29382 6.29382 6.335987 6.295228 6.298356 6.350094 6.631802 6.619592 6.579891 6.579891 6.539844 6.600624 6.702133 7.127331 7.283954 7.20223 7.219378 7.219378 7.239581 7.249884 7.264516 7.321443 7.396265 7.370133 7.247333 7.247333 7.269254 7.270115 7.395842 7.50415 7.368886 7.049182 6.770273 6.770273 6.719947 8.740355 9.017428 9.092603 9.18377 9.168883 9.145036 9.145036 9.119932 9.071726 8.846414 8.824503 9.135847 9.360998 9.490785 9.490785 9.792673 9.995419 10.00039 10.19279 10.61735 11.00186 12.3153 12.3153 12.46998 12.49527 12.45494 12.16712 12.12371 12.43178 12.37855 12.37855 12.3277 11.68225 11.53499 12.2859 12.3435 12.31867 12.1256 12.1256 11.96195 12.41475 12.79982 12.92095 12.89526 12.86594 12.86594 12.80201 13.97452 12.63986 9.535414 8.222055 8.307791 8.293601 8.293601 8.295815 8.295135 8.289462 8.281319 8.275414 8.261285 8.164361 8.164361 8.580547 7.433259 6.418803 6.392078 8.406315 8.509816 8.745232 8.745232 9.304436 10.07348 10.78833 11.5983 11.64032 11.43027 11.51739 11.51739 12.45507 12.45133 12.31145 12.63634 13.20978 16.72589 18.71947 18.71947 19.65737 19.50309 19.40144 21.2671 20.45611 18.83125 19.00835 19.00835 18.92618 18.74741 14.64107 14.41867 13.81909 13.16958 12.32187 12.32187 12.40382 12.39447 13.50528 13.69917 14.03824 13.83586 13.85639 13.85639 13.8201 13.87172 13.09732 13.19732 12.63836 12.53243 12.46124 12.46124 12.57618 12.63136 12.72003 12.75456 12.74642 12.7985 12.7985 12.79688 12.9189 13.41373 13.97251 14.41348 14.80485 14.93576 14.93576 15.12068 15.18581 15.40486 15.50272 15.67324 15.94551 16.05089 16.05089 16.20626 16.27255 16.05176 16.14515 16.50351 16.57857 16.7787 16.7787 16.67345 17.95607 18.15915 18.30567 18.43904 18.1138 19.79531 19.79531 20.5092 20.91085 21.2683 21.64715 21.76864 21.96045 22.15929 22.15929 22.21562 22.34417 22.54197 22.60208 22.79151 22.90491 23.00487 23.00487 23.35987 23.81471 24.50393 25.28661 26.15446 26.50904 26.55394 26.55394 27.05417 27.3395 27.68003 27.82039 28.41781 28.86103 28.62918 28.62918 29.11663 30.64363 31.89808 32.15493 31.52375 31.75831 32.34119 32.34119 33.03169 33.15635 33.10815 33.19648 33.15411 33.07889 33.03522 33.03522 33.03547 33.09824 33.17847 33.12406 33.62836 33.51147 33.51147 33.60771 33.74629 33.70638 34.25806 35.6116 36.32237 36.80082 36.80082 37.01939 37.21269 37.17736 37.49081 37.87255 38.25864 38.72286 38.72286 38.92863 39.07026 39.02522 39.11031 38.83085 38.63577 38.84933 38.84933 38.84824 38.7506 38.56966 38.38405 38.32081 38.0751 38.37296 38.37296 37.97101 38.25227 38.23639 38.28133 38.06311 37.9913 38.09048 38.09048 38.29505 38.70231 39.22451 39.67731 39.87476 40.2358 40.26545 40.26545 40.26451 40.45446 41.03202 41.74936 42.07689 42.4459 42.6818 42.6818 42.8164 42.68608 42.77658 43.11331
5.359897 5.359897 5.481645 5.471711 5.469955 5.403584 5.437003 5.668633 5.588465 5.588465 5.771906 5.854847 5.905352 5.868297 5.866105 5.748272 6.020681 6.020681 6.170597 6.283716 6.470928 6.580386 6.60002 6.49091 6.468013 6.468013 6.522249 6.558364 6.782409 6.995141 7.113401 6.997004 7.034011 7.034011 7.13722 7.218283 7.347527 7.263075 7.214562 7.294724 7.329021 7.329021 7.277959 7.217131 7.190511 7.204681 7.107241 6.8195 6.725263 6.725263 6.704032 8.968601 9.088134 8.950177 8.957293 9.044625 9.041902 9.041902 9.039134 9.060951 8.772264 8.80877 9.120847 9.298775 9.500819 9.500819 9.75083 10.12733 10.16788 10.49296 10.87428 11.10227 12.30277 12.30277 12.42902 12.5144 12.46054 11.97569 11.99432 12.31836 12.30515 12.30515 12.27711 11.40702 10.76292 12.35236 12.42504 12.39913 12.39913 12.17092 12.0394 12.39559 12.82558 12.88685 12.87968 12.87061 12.87061 12.86382 13.8324 13.05374 9.470017 8.178864 8.233924 8.283325 8.283325 8.296956 8.297631 8.292546 8.285086 8.28008 8.285301 8.145602 8.145602 8.487662 7.292775 6.465013 6.540986 8.118785 8.527608 8.843057 8.843057 9.370427 9.797915 10.05539 10.38666 10.67784 11.18272 11.08899 11.08899 11.59382 11.94715 12.08059 12.2973 12.08782 13.07602 14.30819 14.30819 18.58807 19.10025 18.84839 18.39237 18.29667 18.43808 18.51551 18.51551 18.70629 18.75863 15.39182 13.14811 12.89036 12.2243 11.78113 11.78113 12.04336 12.10765 12.67389 12.73419 12.73927 12.3077 12.2852 12.2852 12.26203 12.21919 12.29748 12.36079 12.39574 12.44598 12.47241 12.47241 12.55436 12.70235 12.77397 12.78524 12.86115 13.13021 13.13021 13.22155 13.45214 13.72959 14.24026 14.62165 14.77747 14.98569 14.98569 15.12366 15.22559 15.31524 15.44173 15.74695 16.03541 16.33857 16.33857 16.54982 16.27255 16.05176 16.14515 16.50351 16.57857 16.7787 16.7787 16.67345 17.95607 18.15915 18.30567 18.43904 18.1138 19.79531 19.79531 20.5092 20.91085 21.2683 21.64715 21.76864 21.96045 22.15929 22.15929 22.21562 22.34417 22.54197 22.60208 22.79151 22.90491 23.00487 23.00487 23.35987 23.81471 24.50393 25.28661 26.15446 26.50904 26.55394 26.55394 27.05417 27.3395 27.68003 27.82039 28.41781 28.86103 28.62918 28.62918 29.11663 30.64363 31.89808 32.15493 31.52375 31.75831 32.34119 32.34119 33.03169 33.15635 33.10815 33.19648 33.15411 33.07889 33.03522 33.03522 33.03547 33.09824 33.17847 33.12406 33.62836 33.51147 33.51147 33.60771 33.74629 33.70638 34.25806 35.6116 36.32237 36.80082 36.80082 37.01939 37.21269 37.17736 37.49081 37.87255 38.25864 38.72286 38.72286 38.92863 39.07026 39.02522 39.11031 38.83085 38.63577 38.84933 38.84933 38.84824 38.7506 38.56966 38.38405 38.32081 38.0751 38.37296 38.37296 37.97101 38.25227 38.23639 38.28133 38.06311 37.9913 38.09048 38.09048 38.29505 38.70231 39.22451 39.67731 39.87476 40.2358 40.26545 40.26545 40.26451 40.45446 41.03202 41.74936 42.07689 42.4459 42.6818 42.6818 42.8164 42.68608 42.77658 43.11331
5.359897 5.359897 5.481645 5.471711 5.469955 5.403584 5.437003 5.668633 5.588465 5.588465 5.771906 5.854847 5.905352 5.868297 5.866105 5.748272 6.020681 6.020681 6.170597 6.283716 6.470928 6.580386 6.60002 6.49091 6.468013 6.468013 6.522249 6.558364 6.782409 6.995141 7.113401 6.997004 7.034011 7.034011 7.13722 7.218283 7.347527 7.263075 7.214562 7.294724 7.329021 7.329021 7.277959 7.217131 7.190511 7.204681 7.107241 6.8195 6.725263 6.725263 6.704032 9.124348 9.121909 8.999462 8.93319 8.942167 8.93412 8.93412 8.948815 8.900327 8.752715 8.819917 9.080659 9.308967 9.479743 9.479743 9.702014 10.04995 10.27197 10.48448 11.04097 11.16867 12.19069 12.19069 12.17911 12.27527 12.26002 11.89965 12.01253 12.44169 12.36886 12.36886 12.31757 11.0222 10.7758 12.35929 12.45814 12.45917 12.45917 12.30952 12.05292 12.32721 12.79379 12.82954 12.85014 12.865 12.865 12.82049 13.62634 13.11712 9.130052 8.131948 8.294067 8.314242 8.314242 8.314178 8.310202 8.304524 8.297991 8.291176 8.288107 8.109518 8.109518 8.444408 7.120074 6.532869 6.708255 8.128409 8.430044 8.833188 8.833188 9.523171 9.863276 10.00445 10.27176 10.5141 11.00142 10.88509 10.88509 11.59878 11.76869 11.77321 11.90524 11.91102 12.65782 13.90929 13.90929 15.44004 16.86253 16.69621 17.4121 17.93848 16.75316 18.12763 18.12763 16.54844 11.35257 10.75988 11.5108 11.2939 11.20968 11.10606 11.10606 11.18609 11.31574 11.37562 11.55227 11.66773 11.8095 11.88956 11.88956 12.03648 12.19374 12.383 12.43728 12.58605 12.54707 12.55998 12.55998 12.71818 12.68115 12.62426 12.60327 12.67556 12.86961 12.86961 13.11563 14.34337 14.6563 15.37131 15.80253 15.86199 15.65345 15.65345 15.12767 15.33359 15.72412 15.81532 16.12872 16.3727 16.64673 16.64673 16.71263 16.53179 16.30044 16.37422 16.52546 16.9397 17.01246 17.01246 18.057 18.56892 18.78749 19.01577 19.45224 19.06749 20.23044 20.23044 20.83324 21.10568 21.4244 21.7231 21.86746 21.99315 22.19146 22.19146 22.34951 22.60833 22.73075 22.90809 23.17687 23.39919 23.7451 23.7451 24.61238 26.21469 27.53076 28.35901 29.173 29.49671 29.67217 29.67217 30.09612 30.53715 30.81673 30.84952 31.24784 31.72139 31.56024 31.56024 31.25896 31.78014 32.66565 32.87142 32.92102 32.92582 33.03209 33.03209 33.20585 33.29954 33.46125 33.32419 33.14454 32.93176 32.88181 32.88181 32.85639 32.78014 33.04958 33.03603 33.46688 33.48711 33.48711 33.80874 33.88717 33.89726 34.82022 35.77523 36.42875 36.9332 36.9332 37.15745 37.37312 37.41963 37.61028 37.98275 38.23795 38.62019 38.62019 38.88586 38.77858 38.79224 38.80423 38.78131 38.61724 38.88136 38.88136 38.8107 38.72694 38.53431 38.37647 38.28239 38.08838 38.52135 38.52135 37.85197 37.85685 38.10795 38.1105 38.11115 38.43481 39.00428 39.00428 38.98948 39.13373 39.3484 39.77805 40.06479 40.74534 40.79177 40.79177 40.84775 40.88134 41.03306 41.65854 42.18773 42.88111 43.25642 43.25642 43.10614 43.05951 43.10291 43.37927
5.44601 5.44601 5.465807 5.449636 5.429111 5.410777 5.40759 5.385667 5.616811 5.616811 5.600069 5.812479 5.981485 5.936956 5.659066 5.55018 5.648336 5.648336 5.98371 6.061094 6.173795 6.34598 6.459102 6.453384 6.482704 6.482704 6.485802 6.536162 6.648407 6.913624 7.014475 6.880094 6.926377 6.926377 7.119315 7.216909 7.086009 7.01214 7.201425 7.262828 7.273661 7.273661 7.252683 7.207608 7.133737 6.998492 6.842531 6.636664 6.603316 6.603316 7.027704 9.124348 9.121909 8.999462 8.93319 8.942167 8.93412 8.93412 8.948815 8.900327 8.752715 8.819917 9.080659 9.308967 9.479743 9.479743 9.702014 10.04995 10.27197 10.48448 11.04097 11.16867 12.19069 12.19069 12.17911 12.27527 12.26002 11.89965 12.01253 12.44169 12.36886 12.36886 12.31757 11.0222 10.7758 12.35929 12.45814 12.45917 12.45917 12.30952 12.05292 12.32721 12.79379 12.82954 12.85014 12.865 12.865 12.82049 13.62634 13.11712 9.130052 8.131948 8.294067 8.314242 8.314242 8.314178 8.310202 8.304524 8.297991 8.291176 8.288107 8.109518 8.109518 8.444408 7.120074 6.532869 6.708255 8.128409 8.430044 8.833188 8.833188 9.523171 9.863276 10.00445 10.27176 10.5141 11.00142 10.88509 10.88509 11.59878 11.76869 11.77321 11.90524 11.91102 12.65782 13.90929 13.90929 15.44004 16.86253 16.69621 17.4121 17.93848 16.75316 18.12763 18.12763 16.54844 11.35257 10.75988 11.5108 11.2939 11.20968 11.10606 11.10606 11.18609 11.31574 11.37562 11.55227 11.66773 11.8095 11.88956 11.88956 12.03648 12.19374 12.383 12.43728 12.58605 12.54707 12.55998 12.55998 12.71818 12.68115 12.62426 12.60327 12.67556 12.86961 12.86961 13.11563 14.34337 14.6563 15.37131 15.80253 15.86199 15.65345 15.65345 15.12767 15.33359 15.72412 15.81532 16.12872 16.3727 16.64673 16.64673 16.71263 16.53179 16.30044 16.37422 16.52546 17.22843 17.34701 17.34701 17.26894 18.67479 18.9152 19.27823 19.61473 19.75539 20.03604 20.03604 20.81381 21.23497 21.54969 21.76506 22.04134 22.11157 22.34581 22.34581 22.6232 22.82173 23.00975 23.20173 23.53966 23.99204 25.06911 25.06911 26.85675 28.46176 29.68802 30.7643 31.43871 31.88853 31.8064 31.8064 31.95292 32.37644 32.59769 32.54821 33.12762 33.26802 33.30224 33.30224 32.8703 32.86183 32.92458 33.00784 33.0393 33.0367 33.05901 33.05901 33.09844 33.20038 33.18168 33.20965 32.98664 32.92 32.78225 32.78225 32.72731 32.72987 32.84122 32.8961 33.2001 33.4297 33.4297 33.67966 33.81467 33.82401 34.68846 35.75429 36.20413 36.69368 36.69368 37.00935 37.29857 37.4481 37.55972 37.85414 38.42221 38.46682 38.46682 38.56316 38.64949 38.5529 38.81806 38.66512 38.53246 38.61235 38.61235 38.57911 38.54707 38.25596 38.07903 37.99831 38.01529 38.25121 38.25121 38.22745 37.61036 37.52663 37.70886 38.8732 39.09931 39.22152 39.22152 39.36969 39.32162 39.30554 39.49739 40.09164 40.84539 41.03041 41.03041 41.14458 40.96995 41.05422 41.57085 41.91177 43.04916 43.42269 43.42269 43.34668 43.33747 44.22262 44.37004
5.394711 5.394711 5.422719 5.436309 5.443005 5.445383 5.449843 5.394858 5.545247 5.545247 5.60928 5.704732 5.759017 5.772249 5.630564 5.546295 5.872144 5.872144 6.001404 6.077178 6.09699 6.191398 6.281005 6.427889 6.323141 6.323141 6.383862 6.456536 6.571279 6.888526 6.90322 6.736878 6.917737 6.917737 7.012253 7.038642 6.928137 6.650682 6.749977 7.050154 7.14498 7.14498 7.133507 7.008171 6.992801 6.961634 6.758929 6.524838 6.530839 6.530839 7.749333 9.265737 9.205218 9.191886 9.186099 9.196355 9.128183 9.128183 8.967702 8.723678 8.717186 8.885156 9.024359 9.197639 9.374119 9.374119 9.624025 9.992718 10.53177 10.61372 10.90735 11.11381 12.18787 12.18787 12.32622 12.3364 12.13206 11.81483 11.9411 12.32906 12.3414 12.3414 12.36108 10.90202 10.81356 12.31742 12.42067 12.40443 12.40443 12.23065 11.99708 12.22089 12.66631 12.8668 12.90023 12.89297 12.89297 12.8293 13.45151 12.61438 8.758101 8.112144 8.433597 8.360188 8.360188 8.338724 8.328614 8.320726 8.313017 8.305747 8.292073 8.090266 8.090266 8.37732 6.979441 6.485876 6.541335 8.255602 8.313436 8.812342 8.812342 9.326293 9.796282 10.03611 10.11256 10.35716 10.58354 10.71853 10.71853 11.07004 11.45844 11.65745 11.80427 12.28053 13.3203 13.43877 13.43877 13.91019 14.76416 14.07155 13.15076 12.68878 12.88446 12.64377 12.64377 10.9904 9.886779 9.774832 10.40664 10.57901 10.51855 10.66282 10.66282 10.73899 10.92087 11.15923 11.41011 11.63871 11.97493 12.18028 12.18028 12.32865 12.5023 12.29308 12.42121 12.50126 12.45452 12.45452 12.38862 12.54628 12.61728 12.57827 12.56336 12.53318 13.12092 13.12092 13.76653 15.52849 15.7101 16.25059 16.58456 16.47416 16.21879 16.21879 15.66354 16.05353 17.52655 17.34772 17.49099 17.48952 17.38343 17.38343 16.96709 17.0497 16.4745 16.62444 16.83789 17.22843 17.34701 17.34701 17.26894 18.67479 18.9152 19.27823 19.61473 19.75539 20.03604 20.03604 20.81381 21.23497 21.54969 21.76506 22.04134 22.11157 22.34581 22.34581 22.6232 22.82173 23.00975 23.20173 23.53966 23.99204 25.06911 25.06911 26.85675 28.46176 29.68802 30.7643 31.43871 31.88853 31.8064 31.8064 31.95292 32.37644 32.59769 32.54821 33.12762 33.26802 33.30224 33.30224 32.8703 32.86183 32.92458 33.00784 33.0393 33.0367 33.05901 33.05901 33.09844 33.20038 33.18168 33.20965 32.98664 32.92 32.92 32.78225 32.72731 32.72987 32.84122 32.8961 33.2001 33.4297 33.4297 33.67966 33.81467 33.82401 34.68846 35.75429 36.20413 36.69368 36.69368 37.00935 37.29857 37.4481 37.55972 37.85414 38.42221 38.46682 38.46682 38.56316 38.64949 38.5529 38.81806 38.66512 38.53246 38.61235 38.61235 38.57911 38.54707 38.25596 38.07903 37.99831 38.01529 38.25121 38.25121 38.22745 37.61036 37.52663 37.70886 38.8732 39.09931 39.22152 39.22152 39.36969 39.32162 39.30554 39.49739 40.09164 40.84539 41.03041 41.03041 41.14458 40.96995 41.05422 41.57085 41.91177 43.04916 43.42269 43.42269 43.34668 43.33747 44.22262 44.37004
5.394711 5.394711 5.422719 5.436309 5.443005 5.445383 5.449843 5.394858 5.545247 5.545247 5.60928 5.704732 5.759017 5.772249 5.630564 5.546295 5.872144 5.872144 6.001404 6.077178 6.09699 6.191398 6.281005 6.427889 6.323141 6.323141 6.383862 6.456536 6.571279 6.888526 6.90322 6.736878 6.917737 6.917737 7.012253 7.038642 6.928137 6.650682 6.749977 7.050154 7.14498 7.14498 7.133507 7.008171 6.992801 6.961634 6.758929 6.524838 6.530839 6.530839 7.749333 9.265737 9.205218 9.191886 9.186099 9.138945 9.081385 9.081385 8.906346 8.684893 8.686142 8.846227 8.978442 9.162752 9.430416 9.430416 9.642786 9.882815 10.42611 10.74661 11.01202 11.87841 12.18278 12.18278 12.23986 12.26286 12.04057 11.84201 11.97796 12.27364 12.27364 12.34661 12.22595 10.86189 10.76762 12.3199 12.37899 12.46796 12.46796 12.20622 11.93901 12.36793 12.78205 12.81999 12.77826 12.77946 12.77946 12.76513 13.82157 11.71137 8.482447 8.118214 8.374274 8.37794 8.37794 8.369838 8.356255 8.343734 8.330984 8.314503 8.311947 8.051947 8.051947 8.230102 6.822209 6.406942 6.57229 8.168028 8.128479 8.646568 8.646568 9.019036 9.231755 9.171349 9.486703 9.823232 10.29795 10.61313 10.61313 11.12878 11.56424 11.62155 11.56475 12.02366 12.33278 12.60949 12.60949 12.96519 12.95167 12.48928 12.26518 12.48203 12.70747 11.68341 11.68341 10.51835 9.814423 9.809505 9.895565 9.984733 10.0112 10.1494 10.1494 10.5412 11.05616 11.30826 11.65662 11.67501 11.91399 11.98905 11.98905 12.23058 12.41261 12.30149 12.32632 12.46664 12.59122 12.59122 13.07513 14.53343 14.68974 15.61192 16.0895 17.08678 18.31249 18.31249 18.14243 18.1025 16.97839 17.35526 18.49244 17.6413 17.26504 17.26504 17.22899 17.45663 17.73842 17.43702 17.33462 17.32212 17.18609 17.18609 17.02214 17.08625 17.00608 16.99275 17.02742 17.25185 17.58084 17.58084 17.25012 17.4305 18.68343 19.09907 19.54985 19.99648 19.75131 19.75131 20.80791 21.03802 21.33517 21.73625 22.04666 22.54949 22.75985 22.75985 22.95007 23.04953 23.23952 23.46563 23.92409 24.5398 25.93852 25.93852 27.73893 29.31995 30.33203 31.07793 31.92779 32.2551 32.35541 32.35541 32.5312 32.70071 32.84697 33.03955 33.26997 33.28415 33.17411 33.17411 33.1502 33.34796 33.18065 32.99383 32.96628 33.21338 33.13628 33.13628 33.10969 33.15149 33.13058 33.06662 33.01332 33.06131 33.06131 32.8947 32.74172 32.89071 32.76973 32.71495 33.168 33.36674 33.36674 33.56779 33.77199 33.98744 34.59262 35.87022 36.23042 36.4911 36.4911 36.98806 37.37453 37.63182 37.80962 38.08361 38.29686 38.58486 38.58486 38.52489 38.76741 38.69468 38.67645 38.64963 38.54879 38.33826 38.33826 38.15908 38.04226 37.78446 37.54245 37.68647 38.10143 38.06817 38.06817 38.20546 37.72536 37.52843 37.74973 38.76707 39.08092 39.2377 39.2377 39.38834 39.39635 39.32631 39.39175 39.97811 40.81166 41.14614 41.14614 41.04917 41.11782 41.11559 41.83345 42.53659 43.44196 43.39346 43.39346 43.40421 43.81292 44.43788 44.63387
5.35513 5.35513 5.415406 5.442815 5.457217 5.468503 5.486104 5.519266 5.475833 5.475833 5.724967 5.526628 5.699672 5.690294 5.521092 5.545944 5.764222 5.764222 5.878211 6.008572 6.10088 6.138149 6.276724 6.336406 6.376923 6.376923 6.398764 6.48744 6.450159 6.632094 6.571383 6.67347 6.805706 6.805706 6.854848 6.848733 6.421303 6.498592 6.369533 6.657006 7.167879 7.167879 7.107182 6.959846 6.93196 6.99276 6.711128 6.484952 6.539847 6.539847 8.781246 9.194097 9.177227 9.166951 9.153114 9.138945 9.081385 9.081385 8.906346 8.684893 8.686142 8.846227 8.978442 9.162752 9.430416 9.430416 9.642786 9.882815 10.42611 10.74661 11.01202 11.87841 12.18278 12.18278 12.23986 12.26286 12.04057 11.84201 11.97796 12.27364 12.27364 12.34661 12.22595 10.86189 10.76762 12.3199 12.37899 12.46796 12.46796 12.20622 11.93901 12.36793 12.78205 12.81999 12.77826 12.77946 12.77946 12.76513 13.82157 11.71137 8.482447 8.118214 8.374274 8.37794 8.37794 8.369838 8.356255 8.343734 8.330984 8.314503 8.311947 8.051947 8.051947 8.230102 6.822209 6.406942 6.57229 8.168028 8.128479 8.646568 8.646568 9.019036 9.231755 9.171349 9.486703 9.823232 10.29795 10.61313 10.61313 11.12878 11.56424 11.62155 11.56475 12.02366 12.33278 12.60949 12.60949 12.96519 12.95167 12.48928 12.26518 12.48203 12.70747 11.68341 11.68341 10.51835 9.814423 9.809505 9.895565 9.984733 10.0112 10.1494 10.1494 10.5412 11.05616 11.30826 11.65662 11.67501 11.91399 11.98905 11.98905 12.23058 12.41261 12.30149 12.32632 12.46664 12.59122 12.59122 13.07513 14.53343 14.68974 15.61192 16.0895 17.08678 18.31249 18.31249 18.14243 18.1025 16.97839 17.35526 18.49244 17.6413 17.26504 17.26504 17.22899 17.45663 17.73842 17.43702 17.33462 17.32212 17.18609 17.18609 17.02214 17.08625 17.00608 16.99275 17.02742 17.25185 17.58084 17.58084 17.25012 16.65483 17.17643 18.30641 19.32609 19.86104 19.38425 19.38425 20.68846 20.87937 21.13167 21.40989 21.82915 22.10326 22.47581 22.47581 22.83914 23.07619 23.31049 23.6195 24.02231 24.56416 25.5025 25.5025 26.52911 27.76733 28.61324 29.96008 31.49982 32.0428 32.12945 32.12945 32.40412 32.61084 32.79138 33.03246 33.14131 33.1872 33.12722 33.12722 33.03909 33.16969 33.08408 32.88866 33.05214 33.1336 33.1498 33.1498 33.07786 33.14766 33.15498 33.1783 33.14927 33.19059 33.19059 32.98804 32.7149 32.63627 32.70707 32.73381 32.87887 33.48633 33.48633 34.03503 34.44124 34.71407 34.8574 35.04149 35.6763 36.78159 36.78159 37.06466 37.1029 37.75573 38.48008 38.09451 38.66063 38.90513 38.90513 38.93713 39.01243 38.95557 38.97245 38.89516 38.64542 38.22264 38.22264 37.80316 37.50252 37.48635 37.33046 37.40427 37.74138 37.89308 37.89308 38.26468 37.92197 37.83434 37.92949 38.41606 38.81498 39.05332 39.05332 39.14264 39.1251 39.18262 39.52588 39.85564 40.42542 40.91281 40.91281 40.96801 41.21291 41.46151 42.36043 42.84366 43.18434 43.56297 43.56297 44.34306 44.66019 45.0349 45.38054
5.425359 5.425359 5.439845 5.454875 5.462402 5.475605 5.493662 5.512291 5.522482 5.522482 5.50019 5.634057 5.458387 5.54348 5.46254 5.57173 5.710617 5.710617 5.838967 5.978538 5.957999 6.166375 6.183203 6.218163 6.329498 6.329498 6.348659 6.363956 6.317022 6.286889 6.337801 6.47977 6.51208 6.51208 6.549962 6.177059 6.540155 6.736214 6.784657 6.951736 7.244968 7.244968 7.160456 7.032836 6.8316 6.683553 6.432322 6.482481 7.283049 7.283049 9.064481 9.114331 9.117338 9.108725 9.087316 9.054973 8.976847 8.976847 8.758679 8.585211 8.679502 8.847159 9.046051 9.246752 9.44608 9.44608 9.672623 9.959984 10.36217 10.86734 11.03365 11.18719 12.21216 12.21216 12.2586 12.27599 12.10876 11.85981 12.10637 12.39177 12.39177 12.41991 12.18917 10.68236 10.68334 12.31666 12.443 12.45598 12.45598 12.22937 11.91174 12.04496 12.29409 12.24444 12.21164 12.33154 12.33154 12.40542 14.21841 11.34549 8.388298 8.128452 8.34179 8.383262 8.383262 8.367906 8.35624 8.345222 8.334858 8.325371 8.290077 8.101304 8.101304 7.957089 6.534118 6.356091 6.766848 7.954052 7.90132 8.316083 8.316083 8.756741 8.961426 9.028645 9.376659 9.698461 9.947445 10.45316 10.45316 10.85008 11.54813 11.56136 11.4097 11.78622 12.08598 12.32547 12.32547 12.60871 12.49354 12.32438 12.27663 12.48881 11.94755 10.84711 10.84711 9.818634 9.732139 9.745716 9.569781 9.643423 9.936305 10.3413 10.3413 10.68836 11.0809 11.26039 11.50653 11.78235 11.78518 12.03741 12.03741 12.19949 12.40091 13.67701 14.4576 14.93837 17.04924 17.04924 19.3271 19.84422 19.91762 19.90629 20.13811 20.02384 19.26976 19.26976 19.12479 19.22833 18.05789 18.13593 18.66036 18.47547 18.29005 18.29005 18.06169 17.89777 17.79506 17.6693 17.5504 17.48159 17.37022 17.37022 17.31459 17.23798 17.61276 17.48827 17.48555 17.50916 16.07785 16.07785 15.96067 16.65483 17.17643 18.30641 19.32609 19.86104 19.38425 19.38425 20.68846 20.87937 21.13167 21.40989 21.82915 22.10326 22.47581 22.47581 22.83914 23.07619 23.31049 23.6195 24.02231 24.56416 25.5025 25.5025 26.52911 27.76733 28.61324 29.96008 31.49982 32.0428 32.12945 32.12945 32.40412 32.61084 32.79138 33.03246 33.14131 33.1872 33.12722 33.12722 33.03909 33.16969 33.08408 32.88866 33.05214 33.1336 33.1336 33.1498 33.07786 33.14766 33.15498 33.1783 33.14927 33.19059 33.19059 32.98804 32.7149 32.63627 32.70707 32.73381 32.87887 33.48633 33.48633 34.03503 34.44124 34.71407 34.8574 35.04149 35.6763 36.78159 36.78159 37.06466 37.1029 37.75573 38.48008 38.09451 38.66063 38.90513 38.90513 38.93713 39.01243 38.95557 38.97245 38.89516 38.64542 38.22264 38.22264 37.80316 37.50252 37.48635 37.33046 37.40427 37.74138 37.89308 37.89308 38.26468 37.92197 37.83434 37.92949 38.41606 38.81498 39.05332 39.05332 39.14264 39.1251 39.18262 39.52588 39.85564 40.42542 40.91281 40.91281 40.96801 41.21291 41.46151 42.36043 42.84366 43.18434 43.56297 43.56297 44.34306 44.66019 45.0349 45.38054
5.425359 5.425359 5.439845 5.454875 5.462402 5.475605 5.493662 5.512291 5.522482 5.522482 5.50019 5.634057 5.458387 5.54348 5.46254 5.57173 5.710617 5.710617 5.838967 5.978538 5.957999 6.166375 6.183203 6.218163 6.329498 6.329498 6.348659 6.363956 6.317022 6.286889 6.337801 6.47977 6.51208 6.51208 6.549962 6.177059 6.540155 6.736214 6.784657 6.951736 7.244968 7.244968 7.160456 7.032836 6.8316 6.683553 6.432322 6.482481 7.283049 7.283049 9.064481 9.114331 9.117338 9.108725 9.087316 9.054973 8.976847 8.976847 8.758679 8.585211 8.673358 8.795488 9.011909 9.219318 9.478441 9.478441 9.723044 10.02382 10.30929 11.01268 11.08306 11.48296 11.48296 12.20579 12.26533 12.29894 12.05945 11.95722 12.28877 12.38544 12.38544 12.33921 11.9179 10.66747 10.6813 12.32124 12.44653 12.47715 12.47715 12.35338 11.98915 12.20134 12.47399 12.52523 12.50623 12.54314 12.54314 12.60402 14.07779 11.5702 8.286825 8.171222 8.484934 8.368425 8.368425 8.35909 8.353308 8.346392 8.338092 8.330112 8.332002 8.078824 8.078824 7.82084 6.468863 6.492033 6.4916 7.811361 7.928372 8.244643 8.244643 8.584261 8.732307 9.277184 9.555645 9.867177 10.28227 10.34446 10.34446 10.42043 10.93424 10.91 11.14038 11.65368 12.08218 12.0003 12.0003 12.13143 12.01895 11.74918 11.58282 11.51581 10.82529 10.04242 10.04242 9.632627 9.47397 9.363189 9.442899 9.803341 10.09661 10.73675 10.73675 10.91903 11.15974 11.17802 11.2117 11.20336 11.64051 11.64051 12.38653 14.26449 18.09698 20.02756 19.91997 19.95044 19.98125 19.98125 20.2491 20.61284 20.40879 20.12371 20.26709 20.41186 20.42707 20.42707 19.88064 19.86357 19.17131 18.97892 19.08568 18.64639 18.4471 18.4471 18.31667 18.26034 18.1339 18.05228 17.93802 18.22212 18.85616 18.85616 19.0542 18.86009 18.46618 18.05149 18.0913 18.48701 16.41022 16.41022 15.74174 16.31755 16.89541 17.20699 17.91036 18.76338 18.9822 18.9822 20.30806 20.60839 20.91992 21.21635 21.52812 21.86135 22.19615 22.19615 22.52957 22.86536 23.20148 23.50826 24.67077 24.42253 24.72719 24.72719 25.28311 26.00357 26.77954 27.9251 29.29947 30.23104 30.52496 30.52496 30.95525 31.59059 31.98295 32.30515 32.91478 32.91112 32.90829 32.90829 33.07577 33.0214 33.10722 32.88888 33.11301 33.23425 33.23425 33.30749 33.23958 33.12285 33.19218 33.25078 32.99347 33.02217 33.02217 32.98938 32.67548 32.49641 32.56012 32.7049 32.8802 33.54019 33.54019 34.1978 34.83353 34.91677 34.94753 35.33543 35.05379 36.57621 36.57621 37.01728 37.0254 37.58112 37.95608 38.26642 38.82994 39.03164 39.03164 39.15471 39.30273 39.34375 38.95285 39.06169 38.72799 37.94205 37.94205 37.78325 37.57455 37.33681 37.12254 37.26284 37.52739 37.75156 37.75156 38.01349 38.23919 38.33348 38.22418 38.38599 38.78969 38.77439 38.77439 38.87296 39.06631 39.14718 39.23074 39.54806 40.00964 40.44415 40.44415 40.90363 41.40631 41.95917 42.67664 43.21622 43.77964 44.41406 44.41406 45.08757 45.49609 45.75909 46.03978
5.324158 5.324158 5.386221 5.461714 5.457643 5.470124 5.484065 5.508262 5.544102 5.544102 5.595223 5.657453 5.573307 5.368228 5.398639 5.696707 5.669379 5.669379 5.663056 5.720571 5.825691 6.098481 6.147981 6.220096 6.27138 6.27138 6.239343 6.221061 6.18535 6.245957 6.356649 6.367703 6.184615 6.184615 6.007708 6.204171 6.665114 6.795326 6.931749 6.970023 7.097956 7.097956 7.109015 6.961241 6.827216 6.647122 6.3456 6.386919 8.495008 8.495008 9.03669 9.016966 9.055691 9.047823 9.018356 8.988432 8.999766 8.999766 8.675542 8.583802 8.673358 8.795488 9.011909 9.219318 9.478441 9.478441 9.723044 10.02382 10.30929 11.01268 11.08306 11.48296 11.48296 12.20579 12.26533 12.29894 12.05945 11.95722 12.28877 12.38544 12.38544 12.33921 11.9179 10.66747 10.6813 12.32124 12.44653 12.47715 12.47715 12.35338 11.98915 12.20134 12.47399 12.52523 12.50623 12.54314 12.54314 12.60402 14.07779 11.5702 8.286825 8.171222 8.484934 8.368425 8.368425 8.35909 8.353308 8.346392 8.338092 8.330112 8.332002 8.078824 8.078824 7.82084 6.468863 6.492033 6.4916 7.811361 7.928372 8.244643 8.244643 8.584261 8.732307 9.277184 9.555645 9.867177 10.28227 10.34446 10.34446 10.42043 10.93424 10.91 11.14038 11.65368 12.08218 12.0003 12.0003 12.13143 12.01895 11.74918 11.58282 11.51581 10.82529 10.04242 10.04242 9.632627 9.47397 9.363189 9.442899 9.803341 10.09661 10.73675 10.73675 10.91903 11.15974 11.17802 11.2117 11.20336 11.64051 11.64051 12.38653 14.26449 18.09698 20.02756 19.91997 19.95044 19.98125 19.98125 20.2491 20.61284 20.40879 20.12371 20.26709 20.41186 20.42707 20.42707 19.88064 19.86357 19.17131 18.97892 19.08568 18.64639 18.4471 18.4471 18.31667 18.26034 18.1339 18.05228 17.93802 18.22212 18.85616 18.85616 19.0542 18.86009 18.46618 18.05149 18.0913 18.48701 16.41022 16.41022 15.74174 16.31755 16.89541 17.20699 17.91036 17.39582 18.40584 18.40584 19.23113 20.17421 20.33896 20.69259 21.06083 21.47784 21.80434 21.80434 22.1742 22.44221 22.89975 23.34028 23.8294 24.11313 24.27306 24.27306 24.68804 25.22256 25.5615 25.838 26.79723 27.45992 27.87412 27.87412 28.64703 28.57243 29.35264 30.33331 31.23885 31.97675 32.17199 32.17199 32.30685 32.53107 32.90822 32.7083 32.85058 33.10371 33.10371 33.3475 33.19468 33.00925 33.09054 33.12003 32.94522 32.85706 32.85706 32.79642 32.72232 32.63616 32.65993 32.61937 32.57074 33.32318 33.32318 33.99719 34.48301 34.72624 34.77935 35.20323 35.1202 35.83204 35.83204 36.9159 37.27803 38.04245 38.47451 38.69359 38.92805 39.15414 39.15414 39.29066 39.24529 39.3449 39.14529 39.09854 38.03917 38.06788 38.06788 37.78254 37.5154 37.12658 36.9421 37.08638 37.30859 37.59301 37.59301 37.681 37.95211 38.22155 38.34413 38.49185 38.57679 38.68044 38.68044 38.75737 38.9874 38.98862 39.10841 39.40575 39.69606 40.14082 40.14082 40.72256 41.29135 41.97686 42.60756 43.2285 43.82199 44.3638 44.3638 44.9184 45.33213 45.68419 46.03973
5.272802 5.272802 5.338305 5.313156 5.416774 5.441493 5.466314 5.494777 5.527153 5.527153 5.558496 5.584387 5.578553 5.508127 5.278757 5.21038 5.529017 5.529017 5.547747 5.40321 5.68702 6.06004 6.157253 6.076427 5.997847 5.997847 5.98665 6.01085 6.064229 6.139427 6.330175 6.177974 5.993607 5.993607 6.076801 6.284092 6.657605 6.770194 6.701339 6.661268 6.726308 6.726308 6.898608 6.742733 6.599361 6.370177 6.371629 7.387653 9.006565 9.006565 9.193194 9.190935 8.977943 8.804963 8.759457 8.699647 8.684091 8.684091 8.529873 8.537098 8.654799 8.800213 8.98637 9.223736 9.475999 9.475999 9.740846 9.936622 10.23432 10.69541 11.15372 11.98507 11.98507 12.38891 12.37861 12.44292 12.11576 12.06495 12.3141 12.30476 12.30476 12.33735 12.0359 10.66839 10.64875 12.29821 12.44858 12.49096 12.49096 12.36907 12.10057 12.27453 12.771 12.88197 12.94915 12.99319 12.99319 12.98695 13.56753 11.99943 8.281776 8.115409 8.243256 8.359592 8.359592 8.359423 8.357006 8.354763 8.351991 8.343427 8.30738 8.057887 8.057887 7.728112 6.428082 6.487213 7.248209 8.46523 8.564442 8.717299 8.717299 8.89066 9.179439 9.380905 9.567056 9.84055 10.29562 10.27664 10.27664 10.1303 10.38578 10.64841 10.94163 11.52426 11.05382 11.35822 11.35822 11.55902 11.5467 10.88803 10.38547 10.23182 9.961771 9.496646 9.496646 9.307794 9.215157 9.494983 9.670872 9.596587 9.996523 10.55499 10.55499 10.67326 10.93189 11.06008 11.18165 10.98012 11.41235 11.41235 12.19026 15.56987 20.17599 20.26379 20.09493 20.39663 20.61506 20.61506 20.6023 20.58445 20.46738 20.48636 20.38335 20.30646 20.17583 20.17583 20.02797 19.8257 19.64902 19.31123 19.369 19.02037 18.92529 18.92529 19.48089 19.58751 19.68291 19.53366 19.39719 19.37157 19.38146 19.38146 19.46326 19.4152 19.22459 18.72438 18.80161 19.2767 19.61627 19.61627 16.7423 15.77286 16.05756 16.41358 16.7526 17.39582 18.40584 18.40584 19.23113 20.17421 20.33896 20.69259 21.06083 21.47784 21.80434 21.80434 22.1742 22.44221 22.89975 23.34028 23.8294 24.11313 24.27306 24.27306 24.68804 25.22256 25.5615 25.838 26.79723 27.45992 27.87412 27.87412 28.64703 28.57243 29.35264 30.33331 31.23885 31.97675 32.17199 32.17199 32.30685 32.53107 32.90822 32.7083 32.85058 33.10371 33.10371 33.3475 33.19468 33.00925 33.09054 33.12003 32.94522 32.85706 32.85706 32.79642 32.72232 32.63616 32.65993 32.61937 32.57074 33.32318 33.32318 33.99719 34.48301 34.72624 34.77935 35.20323 35.1202 35.83204 35.83204 36.9159 37.27803 38.04245 38.47451 38.69359 38.92805 39.15414 39.15414 39.29066 39.24529 39.3449 39.14529 39.09854 38.03917 38.06788 38.06788 37.78254 37.5154 37.12658 36.9421 37.08638 37.30859 37.59301 37.59301 37.681 37.95211 38.22155 38.34413 38.49185 38.57679 38.68044 38.68044 38.75737 38.9874 38.98862 39.10841 39.40575 39.69606 40.14082 40.14082 40.72256 41.29135 41.97686 42.60756 43.2285 43.82199 44.3638 44.3638 44.9184 45.33213 45.68419 46.03973
5.272802 5.272802 5.338305 5.313156 5.416774 5.441493 5.466314 5.494777 5.527153 5.527153 5.558496 5.584387 5.578553 5.508127 5.278757 5.21038 5.529017 5.529017 5.547747 5.40321 5.68702 6.06004 6.157253 6.076427 5.997847 5.997847 5.98665 6.01085 6.064229 6.139427 6.330175 6.177974 5.993607 5.993607 6.076801 6.284092 6.657605 6.770194 6.701339 6.661268 6.726308 6.726308 6.898608 6.742733 6.599361 6.370177 6.371629 7.387653 9.006565 9.006565 9.193194 9.190935 8.977943 8.804963 8.759457 8.699647 8.684091 8.684091 8.529873 8.537098 8.654799 8.800213 8.98637 9.223736 9.573347 9.573347 9.858016 10.07006 10.32211 10.59851 11.33309 12.40113 12.40113 12.42546 12.43347 12.43965 12.2006 12.16157 12.54052 12.50923 12.50923 12.49945 12.12115 10.65196 10.69836 12.28764 12.45511 12.51867 12.51867 12.55624 12.1373 12.32905 12.79047 12.84795 12.93133 12.88624 12.88624 12.99987 13.63934 12.1327 8.214396 8.04552 8.346797 8.33093 8.33093 8.342318 8.345606 8.345963 8.3475 8.356036 8.378508 8.055474 8.055474 7.730018 6.449194 6.396802 7.608046 8.608559 8.920772 9.064322 9.064322 9.131454 9.207324 9.265845 9.427686 9.86366 10.13166 10.12623 10.12623 9.962445 10.25818 10.72018 10.50864 9.569291 9.522502 9.701911 9.701911 10.23862 10.41788 10.24494 10.06471 9.990447 9.74588 9.369997 9.369997 9.369184 9.556997 9.692041 9.832294 10.01191 10.4672 10.69195 10.69195 10.67358 10.84044 10.86437 11.0647 11.20423 11.57156 11.57156 12.16332 14.53731 19.39095 20.23449 20.34036 20.28855 20.24463 20.24463 20.30997 20.36431 20.36178 20.32998 20.44697 20.45636 20.47674 20.47674 20.64779 21.47248 21.29824 19.62411 19.50522 19.71507 19.86433 19.86433 19.78318 19.79 19.83042 19.73899 19.45734 19.46408 19.65332 19.65332 19.74179 19.8159 19.89632 19.41901 19.59814 19.89198 20.67092 20.67092 18.17672 15.80523 15.86381 15.99485 16.17577 16.68995 18.02857 18.02857 17.89708 18.45118 18.53779 18.91685 19.47493 20.76762 21.1709 21.1709 21.71384 22.23366 22.64251 23.01606 23.29961 23.60053 23.99502 23.99502 24.12931 24.66306 25.50129 25.68637 25.71428 26.11456 26.23117 26.23117 26.35785 26.80324 27.30457 28.61753 30.16248 31.46825 31.46825 32.21392 32.43697 32.78813 32.78507 32.7627 32.68089 32.91093 32.91093 32.9543 33.12472 32.91183 33.00156 32.89597 32.68351 33.04362 33.04362 33.07998 32.91807 32.79612 32.60175 32.4458 32.46294 32.95743 32.95743 33.60324 34.08563 33.72511 32.80458 34.78313 34.99718 35.82388 35.82388 37.47401 38.00785 38.01438 38.71974 38.87468 39.04809 39.27446 39.27446 39.4187 39.37413 39.34433 39.36482 39.05296 37.62085 37.78048 37.78048 37.66498 37.19356 36.78733 36.68904 36.75471 36.84365 37.15449 37.15449 37.46962 37.63007 37.8518 38.02271 38.27835 38.382 38.63753 38.63753 38.76929 38.98404 38.996 39.22906 39.51197 39.77232 40.11023 40.11023 40.67989 41.22113 41.92426 42.3527 43.35738 43.79442 44.26967 44.26967 44.7897 45.13734 45.69433 46.28503
5.194275 5.194275 5.27898 5.330378 5.317432 5.425831 5.444639 5.470847 5.499328 5.499328 5.526865 5.544372 5.547514 5.53449 5.409784 5.184593 5.11658 5.11658 5.20219 5.373796 5.416713 5.480409 5.524184 5.588176 5.61325 5.61325 5.637416 5.755953 5.859418 5.928956 6.250605 6.095147 5.88283 5.88283 5.994342 6.102004 6.433655 6.627173 6.708445 6.651721 6.722528 6.722528 6.694313 6.521655 6.380381 6.312721 6.426293 8.536011 8.937135 8.937135 9.010825 9.004112 8.860972 8.904473 8.854131 8.711825 8.515577 8.515577 8.47345 8.620499 8.656363 8.854132 9.083923 9.373999 9.373999 9.573347 9.858016 10.07006 10.32211 10.59851 11.33309 12.40113 12.40113 12.42546 12.43347 12.43965 12.2006 12.16157 12.54052 12.50923 12.50923 12.49945 12.12115 10.65196 10.69836 12.28764 12.45511 12.51867 12.51867 12.55624 12.1373 12.32905 12.79047 12.84795 12.93133 12.88624 12.88624 12.99987 13.63934 12.1327 8.214396 8.04552 8.346797 8.33093 8.33093 8.342318 8.345606 8.345963 8.3475 8.356036 8.378508 8.055474 8.055474 7.730018 6.449194 6.396802 7.608046 8.608559 8.920772 9.064322 9.064322 9.131454 9.207324 9.265845 9.427686 9.86366 10.13166 10.12623 10.12623 9.962445 10.25818 10.72018 10.50864 9.569291 9.522502 9.701911 9.701911 10.23862 10.41788 10.24494 10.06471 9.990447 9.74588 9.369997 9.369997 9.369184 9.556997 9.692041 9.832294 10.01191 10.4672 10.4672 10.69195 10.67358 10.84044 10.86437 11.0647 11.20423 11.57156 11.57156 12.16332 14.53731 19.39095 20.23449 20.34036 20.28855 20.24463 20.24463 20.30997 20.36431 20.36178 20.32998 20.44697 20.45636 20.47674 20.47674 20.64779 21.47248 21.29824 19.62411 19.50522 19.71507 19.86433 19.86433 19.78318 19.79 19.83042 19.73899 19.45734 19.46408 19.65332 19.65332 19.74179 19.8159 19.89632 19.41901 19.59814 19.89198 20.67092 20.67092 18.17672 15.80523 15.86381 15.99485 16.17577 16.68995 18.02857 18.02857 17.89708 18.45118 17.95133 17.96304 17.84907 17.84419 19.70382 19.70382 20.9548 21.56197 22.28544 22.93122 23.24801 23.43495 23.61913 23.61913 23.97175 24.10265 24.67401 25.33356 25.68158 25.93576 26.1088 26.1088 26.10553 26.24125 26.45294 27.14431 29.3373 31.69985 31.69985 32.04583 32.61328 32.62633 32.62855 32.69006 33.05061 32.94139 32.94139 32.93952 32.7326 32.65437 32.44431 32.41526 32.43996 32.8567 32.8567 33.2238 33.04816 32.67219 32.48633 32.78059 32.32153 32.62843 32.62843 33.05968 33.32497 32.42602 33.02246 34.67287 36.13154 36.59069 36.59069 37.3276 38.06699 38.50827 38.70109 38.95395 39.11587 39.33289 39.33289 39.55533 39.62867 39.59001 39.38783 39.33332 37.83755 37.36159 37.36159 37.04659 36.62102 36.319 36.2821 36.14401 36.47404 36.74355 36.74355 37.27913 37.63947 37.79102 37.97087 37.95766 38.13018 38.14614 38.14614 38.35535 38.5313 38.64545 38.89193 39.28624 39.57642 40.31927 40.31927 40.46175 40.90016 41.31942 41.63008 42.90477 43.96519 44.18021 44.18021 44.98019 45.19313 45.55719 46.57296
4.860474 4.860474 5.183043 5.252426 5.172416 5.287169 5.425945 5.442231 5.475671 5.475671 5.500562 5.520306 5.544021 5.537617 5.420428 5.264351 5.156941 5.156941 5.041401 5.165217 5.303185 5.424065 5.461118 5.444888 5.436459 5.436459 5.3784 5.420788 5.486364 5.755612 6.18512 6.0313 5.841184 5.841184 5.890607 6.045091 6.200573 6.326059 6.406079 6.412366 6.53928 6.53928 6.531858 6.400657 6.185427 6.211868 7.686185 8.852296 8.973164 8.973164 8.965729 9.017744 8.98571 8.850821 8.674569 8.505888 8.393949 8.393949 8.372803 8.647284 8.703495 8.824883 9.12101 9.369213 9.369213 9.659037 9.853316 10.05193 10.21413 10.65862 12.24823 12.43171 12.43171 12.43547 12.45723 12.44043 12.22533 12.26567 12.55755 12.54609 12.54609 12.51442 12.30075 11.11473 11.92936 12.38687 12.46628 12.53668 12.53668 12.41335 12.16337 12.30612 12.67707 12.78519 12.8445 12.84104 12.84104 12.84296 13.42042 12.16102 8.192655 8.004753 8.262929 8.338387 8.338387 8.329199 8.318181 8.313691 8.317931 8.331794 8.370513 7.969093 7.969093 7.533157 6.398967 6.349303 7.293117 8.410056 8.741571 9.115048 9.115048 9.120469 9.189384 9.275808 9.383712 9.604348 9.780373 9.880514 9.880514 9.598077 10.09093 9.572871 9.375709 9.37984 9.444505 9.717155 9.717155 9.845911 9.929057 9.912742 9.912525 9.960452 9.52498 9.544995 9.544995 9.755183 9.83476 10.0246 10.09928 10.21722 10.52949 10.52949 10.66941 10.8288 10.80453 10.90222 11.5971 11.67135 11.73932 11.73932 12.28809 15.09218 17.33537 19.84083 20.17992 20.23099 20.47602 20.47602 20.82748 20.74624 21.28094 21.51206 21.41452 21.60432 21.41878 21.41878 21.40375 21.75175 21.23307 19.94908 19.8762 19.9822 20.01439 20.01439 20.01753 20.06681 20.13863 20.13091 20.17081 20.15189 20.08235 20.08235 20.13875 20.13823 20.36562 20.31892 20.2652 20.37094 20.75296 20.75296 19.13027 15.89185 16.05134 16.13642 16.03025 16.21029 17.4279 17.4279 17.30152 17.6906 17.95133 17.96304 17.84907 17.84419 19.70382 19.70382 20.9548 21.56197 22.28544 22.93122 23.24801 23.43495 23.61913 23.61913 23.97175 24.10265 24.67401 25.33356 25.68158 25.93576 26.1088 26.1088 26.10553 26.24125 26.45294 27.14431 29.3373 31.69985 31.69985 32.04583 32.61328 32.62633 32.62855 32.69006 33.05061 32.94139 32.94139 32.93952 32.7326 32.65437 32.44431 32.41526 32.43996 32.8567 32.8567 33.2238 33.04816 32.67219 32.48633 32.78059 32.32153 32.62843 32.62843 33.05968 33.32497 32.42602 33.02246 34.67287 36.13154 36.59069 36.59069 37.3276 38.06699 38.50827 38.70109 38.95395 39.11587 39.33289 39.33289 39.55533 39.62867 39.59001 39.38783 39.33332 37.83755 37.36159 37.36159 37.04659 36.62102 36.319 36.2821 36.14401 36.47404 36.74355 36.74355 37.27913 37.63947 37.79102 37.97087 37.95766 38.13018 38.14614 38.14614 38.35535 38.5313 38.64545 38.89193 39.28624 39.57642 40.31927 40.31927 40.46175 40.90016 41.31942 41.63008 42.90477 43.96519 44.18021 44.18021 44.98019 45.19313 45.55719 46.57296
4.860474 4.860474 5.183043 5.252426 5.172416 5.287169 5.425945 5.442231 5.475671 5.475671 5.500562 5.520306 5.544021 5.537617 5.420428 5.264351 5.156941 5.156941 5.041401 5.165217 5.303185 5.424065 5.461118 5.444888 5.436459 5.436459 5.3784 5.420788 5.486364 5.755612 6.18512 6.0313 5.841184 5.841184 5.890607 6.045091 6.200573 6.326059 6.406079 6.412366 6.53928 6.53928 6.531858 6.400657 6.185427 6.211868 7.686185 8.852296 8.973164 8.973164 8.965729 9.017744 8.98571 8.850821 8.674569 8.505888 8.393949 8.393949 8.372803 8.647284 8.703495 8.824883 9.12101 9.369213 9.369213 9.659037 9.853316 10.05193 10.31833 10.7274 12.63857 12.43007 12.43007 12.41269 12.45256 12.45776 12.19738 12.29108 12.55687 12.53041 12.53041 12.49472 12.2152 10.81305 11.36098 12.30501 12.47103 12.43953 12.43953 12.40837 12.13818 12.26497 12.80585 12.86018 12.97177 12.98048 12.98048 12.93259 13.25653 12.81349 8.152479 7.99948 8.285721 8.307284 8.307284 8.273381 8.248345 8.237205 8.238087 8.244775 8.228746 7.860208 7.860208 7.108442 6.37054 6.383401 7.120683 8.206845 8.364593 8.369858 8.369858 8.572485 8.806554 9.015519 9.067798 9.377202 9.563578 9.491004 9.491004 9.21293 9.242887 9.364176 9.450563 9.548326 9.754559 9.829897 9.829897 10.00923 9.85918 9.898184 9.706007 9.628534 9.648553 9.891547 9.891547 10.01611 10.01132 9.98796 10.22573 10.30447 10.44184 10.44184 10.60254 10.70854 10.68914 10.9157 11.86795 12.10486 11.85669 11.85669 12.17731 12.92076 17.84175 20.77255 21.24238 21.01983 21.10058 21.10058 21.29241 21.2471 21.39802 21.58449 21.63365 21.75898 21.83585 21.83585 21.80914 21.7843 21.80058 20.48445 20.24424 20.3069 20.50618 20.50618 20.64338 20.60003 20.50868 20.43236 20.41573 20.45699 20.40742 20.40742 20.48639 20.59108 20.6653 21.04042 20.95442 20.99591 21.29617 21.29617 19.91392 16.31395 16.26187 16.27957 16.06262 15.99106 16.88885 16.88885 17.24656 17.68569 18.11085 18.34507 18.12709 17.91202 18.35439 18.35439 19.65211 20.2618 21.06008 21.90937 22.35869 22.87384 23.17755 23.17755 23.20854 23.45658 23.89611 24.20492 24.55598 24.88805 25.68304 25.68304 26.13655 26.21249 26.12288 26.48126 27.98697 31.29849 31.29849 31.81769 32.10375 32.27385 32.35863 32.04122 31.81862 31.78492 31.78492 31.95437 32.03376 31.96666 32.08122 32.22509 32.49 32.49453 32.49453 32.47126 32.48886 32.44977 32.36089 32.23639 32.05172 31.95168 31.95168 31.90276 32.81807 33.45866 34.41786 35.54919 36.65948 37.13013 37.13013 38.49073 38.47701 38.57375 38.68166 39.10912 39.01022 39.51197 39.51197 40.01128 39.91938 39.82254 39.38979 38.93866 38.06089 37.15773 37.15773 36.55231 36.34309 36.19741 35.7265 35.73817 35.80867 36.10942 36.10942 36.73438 37.57225 37.86641 37.90865 37.71579 37.83181 37.89939 37.89939 38.33099 38.59628 38.68275 38.86044 39.04725 39.14401 40.52489 40.52489 40.50638 41.15318 41.43821 41.4893 42.21255 44.13484 44.13484 44.39621 45.07062 45.48243 45.40411 46.48212
4.756442 4.756442 4.963573 5.023387 5.065826 5.088974 5.273889 5.380625 5.458783 5.458783 5.479956 5.501336 5.516732 5.45754 5.412406 5.339491 5.184806 5.184806 5.071008 4.963966 5.003973 5.09578 5.342281 5.476418 5.474188 5.474188 5.438014 5.389372 5.217535 5.54354 6.150129 5.975988 5.707738 5.707738 5.790114 5.923557 6.045135 6.212308 6.33273 6.339098 6.380049 6.380049 6.299633 6.036107 6.163692 7.006166 8.872539 8.900072 8.927993 8.927993 8.950329 8.935067 8.872814 8.774654 8.640746 8.365209 8.371799 8.371799 8.550795 8.657913 8.727981 8.953533 9.12378 9.310971 9.310971 9.708638 9.895669 10.0529 10.31833 10.7274 12.63857 12.43007 12.43007 12.41269 12.45256 12.45776 12.19738 12.29108 12.55687 12.53041 12.53041 12.49472 12.2152 10.81305 11.36098 12.30501 12.47103 12.43953 12.43953 12.40837 12.13818 12.26497 12.80585 12.86018 12.97177 12.98048 12.98048 12.93259 13.25653 12.81349 8.152479 7.99948 8.285721 8.307284 8.307284 8.273381 8.248345 8.237205 8.238087 8.244775 8.228746 7.860208 7.860208 7.108442 6.37054 6.383401 7.120683 8.206845 8.364593 8.369858 8.369858 8.572485 8.806554 9.015519 9.067798 9.377202 9.563578 9.491004 9.491004 9.21293 9.242887 9.364176 9.450563 9.548326 9.754559 9.829897 9.829897 10.00923 9.85918 9.898184 9.706007 9.628534 9.648553 9.891547 9.891547 10.01611 10.01132 9.98796 10.22573 10.30447 10.44184 10.44184 10.60254 10.70854 10.68914 10.9157 11.86795 12.10486 11.85669 11.85669 12.17731 12.92076 17.84175 20.77255 21.24238 21.01983 21.10058 21.10058 21.29241 21.2471 21.39802 21.58449 21.63365 21.75898 21.83585 21.83585 21.80914 21.7843 21.80058 20.48445 20.24424 20.3069 20.50618 20.50618 20.64338 20.60003 20.50868 20.43236 20.41573 20.45699 20.40742 20.40742 20.48639 20.59108 20.6653 21.04042 20.95442 20.99591 21.29617 21.29617 19.91392 16.31395 16.26187 16.27957 16.06262 15.99106 16.88885 16.88885 17.24656 17.68569 18.11085 18.34507 18.12709 17.91202 18.25092 18.25092 18.30075 18.53681 19.20355 20.05466 21.05311 21.76711 22.11563 22.11563 22.31682 22.52328 22.93845 23.6461 24.23326 24.77062 24.77062 25.08092 25.4532 25.67921 26.06252 26.08452 26.70284 28.47217 28.47217 30.2602 30.91503 30.9746 30.639 30.30836 30.81282 31.23468 31.23468 30.35167 29.16921 29.01817 30.12213 30.63984 30.51764 30.22418 30.22418 30.62082 31.25125 31.66175 32.23022 32.49088 31.76609 31.5996 31.5996 32.24977 32.82363 34.0678 35.51406 36.4272 36.98953 37.39276 37.39276 37.66815 38.51196 38.34694 38.58532 39.2798 38.12839 37.94695 37.94695 39.82287 39.8568 39.81549 39.42469 38.64973 37.44223 36.19904 36.19904 35.64243 36.06139 36.03695 35.20676 35.48803 35.64742 35.78109 35.78109 36.12998 37.11864 37.90382 38.07352 37.77315 37.77259 37.96093 37.96093 38.36924 38.58754 38.85128 38.87358 38.72833 38.98674 40.5853 40.5853 40.79745 41.18573 41.40893 41.39137 41.71729 43.52321 43.52321 44.4823 45.3222 45.58479 45.49765 46.52635
4.677291 4.677291 4.836102 4.951397 4.965667 4.926291 5.035214 5.196773 5.387657 5.387657 5.443212 5.460591 5.459528 5.460114 5.462206 5.474263 5.367481 5.367481 5.091185 5.009124 4.89364 4.883425 5.021356 5.139494 5.312829 5.312829 5.408043 5.47639 5.272697 5.461158 5.544214 5.585994 5.642789 5.642789 5.681916 5.825372 5.990003 6.167909 6.248895 6.105982 6.050436 6.050436 6.099829 6.076697 6.33582 8.773542 8.943997 8.931038 8.900638 8.900638 8.893394 8.871234 8.801401 8.7052 8.555028 8.277757 8.277757 8.183676 8.50338 8.636618 8.760914 8.998713 9.065693 9.347301 9.347301 9.720199 9.911963 10.09788 10.31353 10.63012 12.76476 12.16684 12.16684 12.37923 12.45189 12.28299 12.15735 12.33517 12.55261 12.47861 12.47861 12.47086 11.15613 10.90936 10.84706 11.92943 12.46227 12.46809 12.46809 12.5157 12.09574 12.17884 12.82503 12.87064 12.97 13.03226 13.03226 12.85109 13.15553 12.95369 8.073624 7.946245 8.287219 8.231792 8.231792 8.150069 8.113904 8.111938 8.125349 8.141857 8.157893 7.854754 7.854754 7.557383 6.481775 6.54219 7.239256 8.099288 8.23253 8.292917 8.292917 8.436019 8.61822 8.865606 9.021218 9.351937 9.466133 9.055927 9.055927 8.807328 9.041083 9.31913 9.490808 9.602882 9.622003 9.545994 9.545994 9.850314 9.858245 9.492861 9.600515 9.78742 9.979408 9.979408 9.997593 10.03019 10.0584 10.06013 10.14637 10.36624 10.41135 10.41135 10.67463 10.77792 10.62864 10.71999 11.53108 12.01929 12.03493 12.03493 12.08451 12.5722 15.10305 20.49278 20.96979 21.19889 21.23031 21.23031 21.40897 21.597 21.67209 21.77175 21.77457 21.80717 21.92213 21.92213 21.86657 21.83042 21.76055 21.23727 20.72671 20.69868 20.60448 20.60448 20.56816 20.65202 20.65507 20.63771 20.60106 20.51965 20.42264 20.42264 20.5159 20.70143 20.77849 21.63639 21.59296 21.69547 21.85563 21.85563 21.04674 17.69691 16.17845 16.06856 15.75626 15.77493 16.69526 16.69526 17.035 17.55412 17.84754 18.35809 18.0204 17.82935 18.25092 18.25092 18.30075 18.53681 19.20355 20.05466 21.05311 21.76711 22.11563 22.11563 22.31682 22.52328 22.93845 23.6461 24.23326 24.77062 24.77062 25.08092 25.4532 25.67921 26.06252 26.08452 26.70284 28.47217 28.47217 30.2602 30.91503 30.9746 30.639 30.30836 30.81282 31.23468 31.23468 30.35167 29.16921 29.01817 30.12213 30.63984 30.51764 30.22418 30.22418 30.62082 31.25125 31.66175 32.23022 32.49088 31.76609 31.5996 31.5996 32.24977 32.82363 34.0678 35.51406 36.4272 36.98953 37.39276 37.39276 37.66815 38.51196 38.34694 38.58532 39.2798 38.12839 37.94695 37.94695 39.82287 39.8568 39.81549 39.42469 38.64973 37.44223 36.19904 36.19904 35.64243 36.06139 36.03695 35.20676 35.48803 35.64742 35.78109 35.78109 36.12998 37.11864 37.90382 38.07352 37.77315 37.77259 37.96093 37.96093 38.36924 38.58754 38.85128 38.87358 38.72833 38.98674 40.5853 40.5853 40.79745 41.18573 41.40893 41.39137 41.71729 43.52321 43.52321 44.4823 45.3222 45.58479 45.49765 46.52635
4.677291 4.677291 4.836102 4.951397 4.965667 4.926291 5.035214 5.196773 5.387657 5.387657 5.443212 5.460591 5.459528 5.460114 5.462206 5.474263 5.367481 5.367481 5.091185 5.009124 4.89364 4.883425 5.021356 5.139494 5.312829 5.312829 5.408043 5.47639 5.272697 5.461158 5.544214 5.585994 5.642789 5.642789 5.681916 5.825372 5.990003 6.167909 6.248895 6.105982 6.050436 6.050436 6.099829 6.076697 6.33582 8.773542 8.943997 8.931038 8.900638 8.900638 8.893394 8.871234 8.801401 8.7052 8.555028 8.277757 8.277757 8.183676 8.50338 8.636618 8.760914 8.998713 9.065693 9.347301 9.347301 9.720199 9.911963 10.09788 10.31353 10.63012 12.76476 12.16684 12.16684 12.30202 12.32561 12.14906 12.01031 12.18288 12.35217 12.41039 12.41039 12.30592 11.03588 10.92821 10.87093 11.66296 12.40691 12.41178 12.41178 12.41501 11.96077 11.99126 12.30929 12.38868 12.4047 12.44595 12.44595 12.48191 13.07558 13.21357 7.845527 7.751254 8.138976 8.046662 8.046662 7.944545 7.920933 7.945147 7.998599 8.071445 8.191114 8.006042 8.006042 7.643372 7.604046 7.548717 7.594311 7.924615 7.784472 7.827451 7.827451 7.909035 8.009824 8.192737 8.479968 8.782242 8.87596 8.852131 8.852131 8.578938 8.90624 9.303601 9.539797 9.543359 9.52162 9.413413 9.413413 9.492714 9.39338 9.550305 9.81275 9.93047 10.03825 10.03825 10.0578 10.0966 10.16402 10.22343 10.3505 10.42884 10.24139 10.24139 10.7066 10.79531 10.88259 11.18605 11.4538 11.89408 11.7843 11.7843 11.96872 12.3444 13.31845 19.10869 20.58088 20.95144 21.18987 21.18987 21.42603 21.60932 21.85954 21.85539 21.83839 21.94887 22.0439 22.0439 21.91424 21.89811 21.78444 21.74585 20.9335 20.98557 20.93607 20.93607 20.79307 20.85266 20.92807 20.89819 20.90635 20.85457 20.84426 20.84426 21.04732 21.12247 21.20337 22.01534 22.3256 22.49252 22.5932 22.5932 22.30081 20.39828 16.08465 15.74542 15.58268 15.45842 15.9642 15.9642 16.3543 17.01322 17.45613 17.7325 17.76305 18.31877 18.61461 18.61461 18.88457 19.04807 19.04014 19.4096 20.12578 20.75264 21.55425 21.55425 21.73376 21.93864 22.17316 22.60649 23.03586 24.25756 24.25756 24.58181 24.76729 25.21484 25.57848 25.85551 26.21101 26.85653 26.85653 27.51814 28.55423 28.55387 29.12234 29.72114 29.30081 27.83699 27.83699 26.55414 26.01806 26.20385 26.71084 26.86407 26.71393 26.59717 26.59717 26.65785 26.95611 27.54206 28.62243 30.24447 31.46458 31.01174 31.01174 31.20641 32.53714 33.76963 35.73661 36.44902 36.81571 37.17876 37.17876 37.54929 38.08141 38.34399 38.45084 39.03341 38.42892 38.54922 38.54922 39.5974 39.37957 39.02298 38.40902 37.4388 36.6454 35.30869 35.30869 35.34389 35.96665 35.07233 35.02163 35.25783 35.45776 35.8063 35.8063 35.88799 36.47906 37.48671 38.00564 37.88645 37.72259 38.00399 38.00399 38.0801 38.36749 38.66976 38.63069 38.59484 39.01005 40.36665 40.36665 41.16764 41.37075 41.42352 41.43543 41.60382 42.625 42.625 43.45656 44.46551 45.20111 45.7049 46.42574
4.596057 4.596057 4.715871 4.772208 4.848373 4.885283 4.904127 5.040045 5.166177 5.166177 5.382933 5.403103 5.426784 5.43092 5.431818 5.436078 5.443613 5.443613 5.380859 5.072251 4.975258 4.774397 4.71619 4.869716 4.999108 4.999108 5.115479 5.187223 5.279705 5.42555 5.488297 5.526305 5.566325 5.566325 5.681654 5.848854 6.084071 6.156126 6.23601 6.24627 5.873407 5.873407 5.913762 5.941367 8.087355 8.552782 8.898626 8.907769 8.865043 8.865043 8.870437 8.805412 8.669938 8.624055 8.312022 8.242613 8.242613 8.349766 8.440053 8.683398 8.825287 9.037197 9.081935 9.439754 9.439754 9.739953 9.950397 10.14999 10.40513 10.9685 12.17274 12.21502 12.21502 12.30202 12.32561 12.14906 12.01031 12.18288 12.35217 12.41039 12.41039 12.30592 11.03588 10.92821 10.87093 11.66296 12.40691 12.41178 12.41178 12.41501 11.96077 11.99126 12.30929 12.38868 12.4047 12.44595 12.44595 12.48191 13.07558 13.21357 7.845527 7.751254 8.138976 8.046662 8.046662 7.944545 7.920933 7.945147 7.998599 8.071445 8.191114 8.006042 8.006042 7.643372 7.604046 7.548717 7.594311 7.924615 7.784472 7.827451 7.827451 7.909035 8.009824 8.192737 8.479968 8.782242 8.87596 8.852131 8.852131 8.578938 8.90624 9.303601 9.539797 9.543359 9.52162 9.413413 9.413413 9.492714 9.39338 9.550305 9.81275 9.93047 10.03825 10.03825 10.0578 10.0966 10.16402 10.22343 10.3505 10.42884 10.24139 10.24139 10.7066 10.79531 10.88259 11.18605 11.4538 11.89408 11.7843 11.7843 11.96872 12.3444 13.31845 19.10869 20.58088 20.95144 21.18987 21.18987 21.42603 21.60932 21.85954 21.85539 21.83839 21.94887 22.0439 22.0439 21.91424 21.89811 21.78444 21.74585 20.9335 20.98557 20.93607 20.93607 20.79307 20.85266 20.92807 20.89819 20.90635 20.85457 20.84426 20.84426 21.04732 21.12247 21.20337 22.01534 22.3256 22.49252 22.5932 22.5932 22.30081 20.39828 16.08465 15.74542 15.58268 15.45842 15.9642 15.9642 16.3543 17.01322 17.45613 17.7325 17.76305 18.31877 18.61461 18.61461 18.88457 19.04807 19.58158 19.46807 19.60359 19.94691 20.66609 20.66609 21.20693 21.81571 22.08848 22.48889 22.90482 23.17872 23.17872 23.68299 24.40729 24.62259 24.93118 25.14474 25.4517 26.122 26.122 26.67129 27.31148 27.51198 27.5549 27.09453 25.49641 24.4166 24.4166 24.24027 24.37568 24.44999 24.77106 24.79843 24.66812 24.60739 24.60739 24.61386 24.81462 25.26096 26.09786 27.50238 28.73419 30.16079 30.16079 30.23112 32.34558 33.79632 34.6616 35.43536 35.3287 35.91256 35.91256 37.47199 37.80497 38.06034 38.25503 38.54555 38.76849 37.85152 37.85152 38.81724 38.22575 37.66548 36.81702 36.17091 35.64585 35.10159 35.10159 35.3705 34.52065 34.51302 34.93751 35.12869 35.37112 35.66051 35.66051 35.78218 36.2672 37.13696 37.84515 37.88798 37.79463 38.07037 38.07037 38.0227 38.0528 38.20821 38.35616 38.42006 39.01834 39.01834 39.70373 40.74811 41.13305 41.17605 41.35218 41.66384 42.207 42.207 42.9012 43.82024 44.72188 45.43449 45.99577
